# .PCD v.7 - Point Cloud Data file format
FIELDS x y z
SIZE 4 4 4
TYPE F F F
COUNT 1 1 1
WIDTH 1713
HEIGHT 1
VIEWPOINT 0 0 0 1 0 0 0
POINTS 1713
DATA ascii
1.719241 -0.182433 0.7785906
1.726555 -0.1695922 0.7830231
1.720625 -0.1545983 0.7832598
1.731539 -0.1391082 0.7826602
1.733216 -0.1266813 0.7824605
1.746345 -0.1145831 0.788844
1.739445 -0.1110332 0.7853608
1.750549 -0.08622868 0.7986987
1.770334 -0.07879051 0.7984056
1.791423 -0.06824073 0.8060563
1.813748 -0.0596893 0.8204205
1.902169 -0.03117168 0.860163
1.891859 -0.03788265 0.8516454
1.871328 -0.0108853 0.8387743
1.852178 0.009984379 0.8434228
1.868995 0.01628044 0.8480771
1.875819 0.03084972 0.8489623
1.887434 0.04332235 0.8478254
1.895357 0.06173315 0.8549746
1.917886 0.07775484 0.8589096
1.783224 0.07956611 0.8011121
1.748155 0.0830257 0.7778521
1.71346 0.1112215 0.7695927
1.683884 0.1222745 0.7724991
1.680995 0.1243982 0.753839
1.682881 0.1426425 0.7608286
1.677878 0.1480267 0.7553092
1.687548 0.1654225 0.7598343
1.635171 0.1681678 0.7285357
1.60427 0.1838061 0.7180397
1.577963 0.1976846 0.7170972
1.546181 0.2039542 0.697632
1.541242 0.2123927 0.6946395
1.53347 0.226054 0.6935433
1.520796 0.229302 0.6861085
1.53251 0.2461069 0.6819649
1.519685 0.2543784 0.6880526
1.512675 0.2693866 0.6822018
1.514721 0.2707115 0.6833096
1.520221 0.2900431 0.6894143
1.512179 0.298356 0.6883994
1.513878 0.3129397 0.6825967
1.508266 0.3248569 0.6913698
1.516051 0.3288926 0.6765804
1.514288 0.3420794 0.6872172
4.454427 1.058573 2.009353
4.447681 1.092176 2.00631
4.440725 1.125727 2.003172
4.433558 1.159225 1.99994
4.426182 1.192667 1.996612
4.418596 1.226053 1.99319
4.4108 1.259382 1.989673
4.402796 1.29265 1.986063
4.394583 1.325857 1.982358
4.386162 1.359002 1.978559
4.377533 1.392082 1.974667
4.368697 1.425096 1.970681
4.359654 1.458043 1.966602
4.350405 1.490921 1.96243
4.34095 1.523728 1.958165
4.331289 1.556463 1.953807
4.321423 1.589124 1.949356
4.311352 1.62171 1.944813
4.301077 1.654219 1.940179
4.290599 1.68665 1.935452
4.279917 1.719001 1.930633
4.269033 1.75127 1.925723
4.257946 1.783457 1.920722
4.246658 1.815559 1.91563
4.235169 1.847575 1.910448
4.223479 1.879504 1.905174
4.211589 1.911344 1.899811
4.1995 1.943093 1.894358
4.187212 1.97475 1.888815
4.174725 2.006314 1.883182
4.162041 2.037782 1.87746
4.14916 2.069155 1.87165
4.136082 2.100429 1.865751
4.122808 2.131603 1.859763
4.10934 2.162677 1.853687
4.095676 2.193648 1.847524
4.081819 2.224516 1.841273
4.067768 2.255278 1.834935
4.053524 2.285933 1.82851
4.039089 2.31648 1.821998
4.024463 2.346917 1.8154
4.009645 2.377244 1.808716
3.994639 2.407457 1.801947
3.979442 2.437557 1.795092
3.964058 2.467541 1.788152
3.948485 2.497408 1.781127
3.932726 2.527158 1.774018
3.91678 2.556787 1.766825
3.900649 2.586295 1.759549
3.884334 2.615681 1.752189
3.867834 2.644943 1.744746
3.851151 2.67408 1.737221
3.834285 2.70309 1.729613
3.817239 2.731972 1.721923
3.800011 2.760724 1.714152
3.782604 2.789346 1.706299
3.765017 2.817836 1.698366
3.756156 2.832031 1.694369
3.753321 -2.817836 1.72406
3.770853 -2.789346 1.732113
3.788206 -2.760724 1.740084
3.805381 -2.731972 1.747973
3.822374 -2.70309 1.755779
3.839187 -2.67408 1.763502
3.855819 -2.644943 1.771141
3.872267 -2.615681 1.778697
3.888532 -2.586295 1.786168
3.904613 -2.556787 1.793555
3.920509 -2.527158 1.800856
3.936219 -2.497408 1.808073
3.951744 -2.467541 1.815204
3.96708 -2.437557 1.822249
3.982229 -2.407457 1.829207
3.99719 -2.377244 1.836079
4.011961 -2.346917 1.842864
4.026542 -2.31648 1.849562
4.040933 -2.285933 1.856172
4.055131 -2.255278 1.862694
4.069139 -2.224516 1.869128
4.082953 -2.193648 1.875474
4.096574 -2.162677 1.88173
4.110001 -2.131603 1.887898
4.123233 -2.100429 1.893976
4.136271 -2.069155 1.899965
4.149112 -2.037782 1.905863
4.161757 -2.006314 1.911672
4.174204 -1.97475 1.917389
4.186454 -1.943093 1.923016
4.198506 -1.911344 1.928552
4.210359 -1.879504 1.933997
4.222013 -1.847575 1.93935
4.233466 -1.815559 1.944611
4.244719 -1.783457 1.94978
4.255771 -1.75127 1.954857
4.266622 -1.719001 1.959841
4.27727 -1.68665 1.964732
4.287716 -1.654219 1.96953
4.297959 -1.62171 1.974235
4.307999 -1.589124 1.978847
4.317834 -1.556463 1.983364
4.327465 -1.523728 1.987788
4.336891 -1.490921 1.992118
4.346111 -1.458043 1.996354
4.355126 -1.425096 2.000494
4.363935 -1.392082 2.00454
4.372537 -1.359002 2.008492
4.380931 -1.325857 2.012348
4.389119 -1.29265 2.016109
4.397098 -1.259382 2.019774
4.404869 -1.226053 2.023344
4.412432 -1.192667 2.026817
4.419785 -1.159225 2.030195
4.42693 -1.125727 2.033477
4.433865 -1.092176 2.036662
4.440589 -1.058573 2.039752
1.905199 -0.4354175 0.8657515
1.896125 -0.4171258 0.8717705
1.880987 -0.4046681 0.8678732
1.878618 -0.3924828 0.8626412
1.808297 -0.3561554 0.8331388
1.785239 -0.341666 0.8281941
1.789198 -0.3297301 0.8193883
1.781193 -0.3097954 0.8161093
1.76552 -0.2922787 0.8102524
1.763299 -0.2804903 0.8121708
1.746198 -0.2631613 0.8045111
1.738531 -0.2500572 0.8032931
1.727064 -0.2442089 0.7906502
1.718975 -0.2220857 0.8003983
1.719292 -0.208408 0.7888101
1.717677 -0.1952755 0.7899271
1.728117 -0.1834172 0.797926
1.723808 -0.172437 0.7892258
1.71776 -0.1602779 0.7935811
1.721614 -0.1467497 0.7876374
1.735731 -0.1354702 0.7920137
1.732308 -0.109324 0.8017216
1.744684 -0.1127508 0.7946908
1.761139 -0.09540456 0.8099484
1.755904 -0.07944077 0.8109138
1.782519 -0.06887471 0.8146259
1.817749 -0.05405369 0.8330472
1.901508 -0.04359641 0.8707977
1.873074 -0.02799346 0.8683084
1.868777 -0.01774821 0.8596836
1.861027 -0.0002788214 0.8600908
1.857069 0.01304879 0.848639
1.870697 0.03488059 0.8656976
1.879715 0.04141457 0.8693204
1.891267 0.05520058 0.8655701
1.90951 0.07814217 0.8790701
1.782479 0.06576484 0.8144041
1.731519 0.09681728 0.7947078
1.698875 0.1040668 0.7846881
1.656197 0.119719 0.7698824
1.658174 0.121824 0.7643633
1.647496 0.1397492 0.7544614
1.658506 0.1457036 0.7632423
1.655508 0.16497 0.7640709
1.624726 0.1710637 0.7525257
1.59303 0.1817211 0.7340643
1.557911 0.184662 0.7135268
1.552053 0.196553 0.7074597
1.538005 0.2200012 0.7050886
1.535002 0.2194662 0.7080184
1.53152 0.2322028 0.7047341
1.533763 0.2493591 0.6960143
1.528573 0.2617856 0.6992381
1.535504 0.2706191 0.7007859
1.526171 0.2788839 0.6969836
1.520449 0.2964225 0.7017764
1.523792 0.29482 0.6913556
1.517086 0.3065326 0.6930496
1.521358 0.3219195 0.701532
1.515005 0.350005 0.6968589
4.447104 1.024921 2.042744
4.440589 1.058573 2.039752
4.433865 1.092176 2.036662
4.42693 1.125727 2.033477
4.419785 1.159225 2.030195
4.412432 1.192667 2.026817
4.404869 1.226053 2.023344
4.397098 1.259382 2.019774
4.389119 1.29265 2.016109
4.380931 1.325857 2.012348
4.372537 1.359002 2.008492
4.363935 1.392082 2.00454
4.355126 1.425096 2.000494
4.346111 1.458043 1.996354
4.336891 1.490921 1.992118
4.327465 1.523728 1.987788
4.317834 1.556463 1.983364
4.307999 1.589124 1.978847
4.297959 1.62171 1.974235
4.287716 1.654219 1.96953
4.27727 1.68665 1.964732
4.266622 1.719001 1.959841
4.255771 1.75127 1.954857
4.244719 1.783457 1.94978
4.233466 1.815559 1.944611
4.222013 1.847575 1.93935
4.210359 1.879504 1.933997
4.198506 1.911344 1.928552
4.186454 1.943093 1.923016
4.174204 1.97475 1.917389
4.161757 2.006314 1.911672
4.149112 2.037782 1.905863
4.136271 2.069155 1.899965
4.123233 2.100429 1.893976
4.110001 2.131603 1.887898
4.096574 2.162677 1.88173
4.082953 2.193648 1.875474
4.069139 2.224516 1.869128
4.055131 2.255278 1.862694
4.040933 2.285933 1.856172
4.026542 2.31648 1.849562
4.011961 2.346917 1.842864
3.99719 2.377244 1.836079
3.982229 2.407457 1.829207
3.96708 2.437557 1.822249
3.951744 2.467541 1.815204
3.936219 2.497408 1.808073
3.920509 2.527158 1.800856
3.904613 2.556787 1.793555
3.888532 2.586295 1.786168
3.872267 2.615681 1.778697
3.855819 2.644943 1.771141
3.839187 2.67408 1.763502
3.822374 2.70309 1.755779
3.805381 2.731972 1.747973
3.788206 2.760724 1.740084
3.770853 2.789346 1.732113
3.753321 2.817836 1.72406
3.744488 2.832031 1.720002
3.74145 -2.817836 1.749673
3.758926 -2.789346 1.757846
3.776225 -2.760724 1.765935
3.793344 -2.731972 1.773941
3.810285 -2.70309 1.781863
3.827044 -2.67408 1.789701
3.843623 -2.644943 1.797454
3.860019 -2.615681 1.805121
3.876233 -2.586295 1.812704
3.892263 -2.556787 1.8202
3.908109 -2.527158 1.82761
3.92377 -2.497408 1.834934
3.939245 -2.467541 1.842171
3.954533 -2.437557 1.84932
3.969634 -2.407457 1.856382
3.984547 -2.377244 1.863356
3.999272 -2.346917 1.870242
4.013807 -2.31648 1.877039
4.028152 -2.285933 1.883748
4.042306 -2.255278 1.890367
4.056269 -2.224516 1.896896
4.070039 -2.193648 1.903336
4.083617 -2.162677 1.909686
4.097002 -2.131603 1.915945
4.110192 -2.100429 1.922114
4.123188 -2.069155 1.928191
4.135989 -2.037782 1.934177
4.148593 -2.006314 1.940072
4.161002 -1.97475 1.945874
4.173213 -1.943093 1.951585
4.185226 -1.911344 1.957203
4.197042 -1.879504 1.962729
4.208659 -1.847575 1.968161
4.220076 -1.815559 1.9735
4.231294 -1.783457 1.978746
4.242311 -1.75127 1.983898
4.253127 -1.719001 1.988956
4.263742 -1.68665 1.99392
4.274155 -1.654219 1.99879
4.284365 -1.62171 2.003565
4.294373 -1.589124 2.008245
4.304177 -1.556463 2.01283
4.313777 -1.523728 2.017319
4.323174 -1.490921 2.021713
4.332365 -1.458043 2.026012
4.341352 -1.425096 2.030214
4.350132 -1.392082 2.03432
4.358706 -1.359002 2.03833
4.367075 -1.325857 2.042243
4.375237 -1.29265 2.04606
4.383191 -1.259382 2.04978
4.390937 -1.226053 2.053403
4.398476 -1.192667 2.056928
4.405807 -1.159225 2.060356
4.412928 -1.125727 2.063687
4.419841 -1.092176 2.06692
4.426545 -1.058573 2.070054
1.887778 -0.4378096 0.8826069
1.884515 -0.4226789 0.8848324
1.871557 -0.3985931 0.8780138
1.808684 -0.388705 0.8484693
1.795555 -0.355706 0.8375936
1.785763 -0.3407637 0.8320264
1.778022 -0.3241208 0.8372474
1.771811 -0.3173686 0.8289802
1.763512 -0.2917536 0.8262284
1.748504 -0.2880435 0.83016
1.747268 -0.2731002 0.8266464
1.733803 -0.2453731 0.8201088
1.71739 -0.2344235 0.8056449
1.718771 -0.2206211 0.806114
1.714862 -0.2147684 0.8100812
1.706102 -0.1943675 0.7977455
1.71351 -0.1883579 0.7974673
1.717089 -0.1664869 0.7953041
1.715094 -0.1561244 0.8110815
1.714502 -0.1449582 0.8143312
1.715322 -0.129876 0.8035018
1.725334 -0.1166061 0.8004077
1.736066 -0.1000331 0.8196909
1.742226 -0.09809744 0.8125425
1.757945 -0.08158258 0.8236307
1.775922 -0.06161798 0.8242962
1.808532 -0.05444486 0.8468902
1.892234 -0.04317341 0.8779025
1.87458 -0.03006159 0.8806081
1.86104 -0.01295497 0.8859929
1.84974 -0.002428149 0.8593701
1.854812 0.01424501 0.8638541
1.867335 0.02879324 0.8825173
1.867246 0.03311491 0.8719975
1.890921 0.06765812 0.8881348
1.899288 0.06782178 0.8874623
1.769826 0.08071505 0.8242626
1.72806 0.08854111 0.8157223
1.701892 0.1012014 0.7776954
1.655578 0.1185654 0.7707842
1.636091 0.1323339 0.7685784
1.636485 0.1412309 0.7606805
1.632611 0.1432217 0.7652178
1.639403 0.1608236 0.7622235
1.608124 0.1673254 0.756537
1.574389 0.1674785 0.7362617
1.548176 0.1838873 0.7308772
1.541366 0.1995751 0.7240875
1.542764 0.2151221 0.7235022
1.535043 0.2234812 0.7194119
1.532149 0.2307581 0.7134637
1.528837 0.2422948 0.7208995
1.530125 0.2539061 0.7131115
1.530868 0.2758175 0.7070768
1.525428 0.287691 0.7239326
1.523095 0.2955142 0.719409
1.533435 0.3037464 0.7152836
1.523517 0.3133703 0.7136737
1.530419 0.3358834 0.7171116
4.439322 0.9912195 2.07603
4.433039 1.024921 2.073091
4.426545 1.058573 2.070054
4.419841 1.092176 2.06692
4.412928 1.125727 2.063687
4.405807 1.159225 2.060356
4.398476 1.192667 2.056928
4.390937 1.226053 2.053403
4.383191 1.259382 2.04978
4.375237 1.29265 2.04606
4.367075 1.325857 2.042243
4.358706 1.359002 2.03833
4.350132 1.392082 2.03432
4.341352 1.425096 2.030214
4.332365 1.458043 2.026012
4.323174 1.490921 2.021713
4.313777 1.523728 2.017319
4.304177 1.556463 2.01283
4.294373 1.589124 2.008245
4.284365 1.62171 2.003565
4.274155 1.654219 1.99879
4.263742 1.68665 1.99392
4.253127 1.719001 1.988956
4.242311 1.75127 1.983898
4.231294 1.783457 1.978746
4.220076 1.815559 1.9735
4.208659 1.847575 1.968161
4.197042 1.879504 1.962729
4.185226 1.911344 1.957203
4.173213 1.943093 1.951585
4.161002 1.97475 1.945874
4.148593 2.006314 1.940072
4.135989 2.037782 1.934177
4.123188 2.069155 1.928191
4.110192 2.100429 1.922114
4.097002 2.131603 1.915945
4.083617 2.162677 1.909686
4.070039 2.193648 1.903336
4.056269 2.224516 1.896896
4.042306 2.255278 1.890367
4.028152 2.285933 1.883748
4.013807 2.31648 1.877039
3.999272 2.346917 1.870242
3.984547 2.377244 1.863356
3.969634 2.407457 1.856382
3.954533 2.437557 1.84932
3.939245 2.467541 1.842171
3.92377 2.497408 1.834934
3.908109 2.527158 1.82761
3.892263 2.556787 1.8202
3.876233 2.586295 1.812704
3.860019 2.615681 1.805121
3.843623 2.644943 1.797454
3.827044 2.67408 1.789701
3.810285 2.70309 1.781863
3.793344 2.731972 1.773941
3.776225 2.760724 1.765935
3.758926 2.789346 1.757846
3.74145 2.817836 1.749673
3.732645 2.832031 1.745555
3.729403 -2.817836 1.775204
3.746824 -2.789346 1.783496
3.764067 -2.760724 1.791704
3.781132 -2.731972 1.799827
3.798017 -2.70309 1.807864
3.814723 -2.67408 1.815816
3.831248 -2.644943 1.823682
3.847592 -2.615681 1.831462
3.863753 -2.586295 1.839154
3.879732 -2.556787 1.84676
3.895526 -2.527158 1.854279
3.911137 -2.497408 1.861709
3.926562 -2.467541 1.869052
3.941801 -2.437557 1.876305
3.956853 -2.407457 1.88347
3.971719 -2.377244 1.890546
3.986395 -2.346917 1.897533
4.000884 -2.31648 1.904429
4.015182 -2.285933 1.911235
4.029291 -2.255278 1.917951
4.043209 -2.224516 1.924576
4.056935 -2.193648 1.93111
4.070469 -2.162677 1.937552
4.083811 -2.131603 1.943902
4.096959 -2.100429 1.950161
4.109913 -2.069155 1.956327
4.122672 -2.037782 1.962401
4.135236 -2.006314 1.968381
4.147605 -1.97475 1.974269
4.159777 -1.943093 1.980062
4.171751 -1.911344 1.985762
4.183529 -1.879504 1.991369
4.195108 -1.847575 1.99688
4.206489 -1.815559 2.002297
4.21767 -1.783457 2.00762
4.228652 -1.75127 2.012847
4.239433 -1.719001 2.017979
4.250014 -1.68665 2.023015
4.260394 -1.654219 2.027956
4.270571 -1.62171 2.032801
4.280547 -1.589124 2.037549
4.290319 -1.556463 2.042201
4.299889 -1.523728 2.046756
4.309255 -1.490921 2.051214
4.318417 -1.458043 2.055575
4.327374 -1.425096 2.059839
4.336126 -1.392082 2.064005
4.344673 -1.359002 2.068074
4.353014 -1.325857 2.072044
4.36115 -1.29265 2.075916
4.369078 -1.259382 2.07969
4.3768 -1.226053 2.083366
4.384315 -1.192667 2.086943
4.391622 -1.159225 2.090421
4.39872 -1.125727 2.0938
4.405611 -1.092176 2.09708
4.412293 -1.058573 2.10026
4.418766 -1.024921 2.103342
1.886158 -0.4261871 0.8797224
1.81258 -0.3960761 0.8724049
1.806716 -0.3707101 0.8619982
1.796716 -0.3546045 0.8579929
1.77927 -0.3398922 0.8461606
1.768736 -0.3186056 0.8386285
1.7569 -0.3047094 0.8347281
1.745367 -0.2985422 0.8269918
1.741349 -0.2876575 0.8292045
1.747106 -0.2696411 0.8241348
1.720414 -0.2441784 0.8253064
1.712794 -0.2331088 0.8190975
1.716707 -0.2379243 0.8176066
1.709951 -0.2158578 0.8119502
1.70997 -0.205814 0.8136714
1.708486 -0.1813755 0.8110842
1.711998 -0.1730033 0.8129484
1.707791 -0.1500238 0.8240265
1.711814 -0.1469919 0.8251963
1.71859 -0.1338712 0.8112321
1.723755 -0.1122345 0.8140161
1.735472 -0.1053831 0.8126301
1.73468 -0.0905802 0.8230597
1.747485 -0.07858352 0.842732
1.767665 -0.07350176 0.8399712
1.794942 -0.06392298 0.8534642
1.885282 -0.04664722 0.8999438
1.873022 -0.03411286 0.8827685
1.854575 -0.01633529 0.884554
1.845763 -0.004818553 0.8871374
1.842684 0.009438474 0.8866837
1.844013 0.02207595 0.8956131
1.867215 0.04745025 0.893706
1.879927 0.05914781 0.8933498
1.888372 0.06949239 0.8959372
1.760112 0.09242165 0.8332081
1.717126 0.09262396 0.8224183
1.680567 0.1039293 0.8007498
1.642032 0.1166659 0.785491
1.616805 0.1275764 0.7696058
1.615976 0.1355824 0.7740238
1.607008 0.1427571 0.7718465
1.624876 0.1636249 0.7768148
1.60663 0.1785118 0.7701621
1.566347 0.1747549 0.745472
1.551748 0.1959503 0.7368667
1.542936 0.1995033 0.7375051
1.537514 0.2200546 0.7383477
1.537674 0.2212027 0.7316938
1.54674 0.2377582 0.732855
1.544837 0.2489756 0.7414413
1.53042 0.2645356 0.7285783
1.526856 0.2734204 0.730783
1.535366 0.279135 0.7341244
1.5297 0.2992058 0.7334919
1.540506 0.3087962 0.7344197
1.53213 0.3056066 0.7403799
1.536948 0.330393 0.7360035
4.42503 0.9912195 2.106323
4.418766 1.024921 2.103342
4.412293 1.058573 2.10026
4.405611 1.092176 2.09708
4.39872 1.125727 2.0938
4.391622 1.159225 2.090421
4.384315 1.192667 2.086943
4.3768 1.226053 2.083366
4.369078 1.259382 2.07969
4.36115 1.29265 2.075916
4.353014 1.325857 2.072044
4.344673 1.359002 2.068074
4.336126 1.392082 2.064005
4.327374 1.425096 2.059839
4.318417 1.458043 2.055575
4.309255 1.490921 2.051214
4.299889 1.523728 2.046756
4.290319 1.556463 2.042201
4.280547 1.589124 2.037549
4.270571 1.62171 2.032801
4.260394 1.654219 2.027956
4.250014 1.68665 2.023015
4.239433 1.719001 2.017979
4.228652 1.75127 2.012847
4.21767 1.783457 2.00762
4.206489 1.815559 2.002297
4.195108 1.847575 1.99688
4.183529 1.879504 1.991369
4.171751 1.911344 1.985762
4.159777 1.943093 1.980062
4.147605 1.97475 1.974269
4.135236 2.006314 1.968381
4.122672 2.037782 1.962401
4.109913 2.069155 1.956327
4.096959 2.100429 1.950161
4.083811 2.131603 1.943902
4.070469 2.162677 1.937552
4.056935 2.193648 1.93111
4.043209 2.224516 1.924576
4.029291 2.255278 1.917951
4.015182 2.285933 1.911235
4.000884 2.31648 1.904429
3.986395 2.346917 1.897533
3.971719 2.377244 1.890546
3.956853 2.407457 1.88347
3.941801 2.437557 1.876305
3.926562 2.467541 1.869052
3.911137 2.497408 1.861709
3.895526 2.527158 1.854279
3.879732 2.556787 1.84676
3.863753 2.586295 1.839154
3.847592 2.615681 1.831462
3.831248 2.644943 1.823682
3.814723 2.67408 1.815816
3.798017 2.70309 1.807864
3.781132 2.731972 1.799827
3.764067 2.760724 1.791704
3.746824 2.789346 1.783496
3.729403 2.817836 1.775204
3.720627 2.832031 1.771026
3.717183 -2.817836 1.800652
3.734546 -2.789346 1.809063
3.751733 -2.760724 1.817388
3.768742 -2.731972 1.825628
3.785572 -2.70309 1.833781
3.802223 -2.67408 1.841846
3.818694 -2.644943 1.849825
3.834984 -2.615681 1.857716
3.851093 -2.586295 1.86552
3.867019 -2.556787 1.873234
3.882762 -2.527158 1.880861
3.898321 -2.497408 1.888398
3.913695 -2.467541 1.895845
3.928885 -2.437557 1.903203
3.943888 -2.407457 1.910471
3.958704 -2.377244 1.917648
3.973333 -2.346917 1.924734
3.987774 -2.31648 1.93173
4.002026 -2.285933 1.938634
4.016088 -2.255278 1.945446
4.02996 -2.224516 1.952165
4.043642 -2.193648 1.958793
4.057131 -2.162677 1.965328
4.070429 -2.131603 1.971769
4.083534 -2.100429 1.978117
4.096446 -2.069155 1.984372
4.109163 -2.037782 1.990532
4.121686 -2.006314 1.996599
4.134014 -1.97475 2.00257
4.146146 -1.943093 2.008447
4.158082 -1.911344 2.014229
4.169821 -1.879504 2.019916
4.181362 -1.847575 2.025506
4.192706 -1.815559 2.031001
4.20385 -1.783457 2.0364
4.214796 -1.75127 2.041702
4.225542 -1.719001 2.046908
4.236088 -1.68665 2.052016
4.246433 -1.654219 2.057028
4.256577 -1.62171 2.061942
4.266521 -1.589124 2.066758
4.276261 -1.556463 2.071477
4.285799 -1.523728 2.076097
4.295135 -1.490921 2.080619
4.304266 -1.458043 2.085043
4.313194 -1.425096 2.089368
4.321918 -1.392082 2.093593
4.330437 -1.359002 2.09772
4.338751 -1.325857 2.101748
4.346859 -1.29265 2.105675
4.354762 -1.259382 2.109504
4.362459 -1.226053 2.113232
4.369948 -1.192667 2.11686
4.377231 -1.159225 2.120388
4.384307 -1.125727 2.123816
4.391175 -1.092176 2.127142
4.397835 -1.058573 2.130369
4.404287 -1.024921 2.133494
4.41053 -0.9912195 2.136518
1.796121 -0.3960239 0.8731368
1.780061 -0.3710882 0.8646117
1.779713 -0.3548786 0.8556551
1.774267 -0.3345467 0.865308
1.758172 -0.3266905 0.8502514
1.7454 -0.3088998 0.8484185
1.745658 -0.2981793 0.8492632
1.739074 -0.2709542 0.8321053
1.713762 -0.2660366 0.8297086
1.709979 -0.2450302 0.8358997
1.712905 -0.2477634 0.8393511
1.699412 -0.2228209 0.8354226
1.707366 -0.2115157 0.8215005
1.700666 -0.1999039 0.8282133
1.695537 -0.1832957 0.8151323
1.708023 -0.1699341 0.8212511
1.700352 -0.1606735 0.8218777
1.715487 -0.1468681 0.816246
1.710764 -0.1268677 0.8292528
1.717757 -0.1306138 0.8249698
1.718313 -0.1087889 0.8360348
1.730455 -0.09407851 0.8392754
1.741957 -0.08531033 0.8494668
1.758454 -0.06776939 0.8554402
1.7915 -0.0591787 0.8704442
1.875529 -0.04233627 0.9043409
1.868978 -0.02621673 0.8908005
1.845385 -0.02562622 0.890972
1.834706 -0.00331464 0.8868694
1.839862 0.02246013 0.8921973
1.835092 0.03133448 0.8973861
1.861628 0.05078252 0.8940603
1.871772 0.05494991 0.9004784
1.88038 0.07554697 0.9160609
1.751319 0.07558516 0.846729
1.715077 0.08916079 0.8336226
1.672819 0.1034696 0.813101
1.635318 0.1183396 0.792425
1.6154 0.1241164 0.7862287
1.598893 0.1445133 0.7803124
1.616052 0.1507024 0.7701936
1.601665 0.1594099 0.7727407
1.60931 0.1739639 0.7873864
1.579493 0.1886535 0.7595164
1.564057 0.1947333 0.7568456
1.550737 0.1973114 0.7499438
1.555839 0.2087274 0.7629544
1.546627 0.2259969 0.7538487
1.543481 0.2315548 0.7516828
1.548589 0.2496875 0.7456553
1.549719 0.2612939 0.7456464
1.534976 0.2774476 0.7452962
1.538607 0.2785296 0.7559736
1.539936 0.3012766 0.7569173
1.533833 0.3156478 0.7426862
1.542041 0.3201437 0.7502069
1.658152 0.3510539 0.811271
4.41053 0.9912195 2.136518
4.404287 1.024921 2.133494
4.397835 1.058573 2.130369
4.391175 1.092176 2.127142
4.384307 1.125727 2.123816
4.377231 1.159225 2.120388
4.369948 1.192667 2.11686
4.362459 1.226053 2.113232
4.354762 1.259382 2.109504
4.346859 1.29265 2.105675
4.338751 1.325857 2.101748
4.330437 1.359002 2.09772
4.321918 1.392082 2.093593
4.313194 1.425096 2.089368
4.304266 1.458043 2.085043
4.295135 1.490921 2.080619
4.285799 1.523728 2.076097
4.276261 1.556463 2.071477
4.266521 1.589124 2.066758
4.256577 1.62171 2.061942
4.246433 1.654219 2.057028
4.236088 1.68665 2.052016
4.225542 1.719001 2.046908
4.214796 1.75127 2.041702
4.20385 1.783457 2.0364
4.192706 1.815559 2.031001
4.181362 1.847575 2.025506
4.169821 1.879504 2.019916
4.158082 1.911344 2.014229
4.146146 1.943093 2.008447
4.134014 1.97475 2.00257
4.121686 2.006314 1.996599
4.109163 2.037782 1.990532
4.096446 2.069155 1.984372
4.083534 2.100429 1.978117
4.070429 2.131603 1.971769
4.057131 2.162677 1.965328
4.043642 2.193648 1.958793
4.02996 2.224516 1.952165
4.016088 2.255278 1.945446
4.002026 2.285933 1.938634
3.987774 2.31648 1.93173
3.973333 2.346917 1.924734
3.958704 2.377244 1.917648
3.943888 2.407457 1.910471
3.928885 2.437557 1.903203
3.913695 2.467541 1.895845
3.898321 2.497408 1.888398
3.882762 2.527158 1.880861
3.867019 2.556787 1.873234
3.851093 2.586295 1.86552
3.834984 2.615681 1.857716
3.818694 2.644943 1.849825
3.802223 2.67408 1.841846
3.785572 2.70309 1.833781
3.768742 2.731972 1.825628
3.751733 2.760724 1.817388
3.734546 2.789346 1.809063
3.717183 2.817836 1.800652
3.708436 2.832031 1.796415
3.704789 -2.817836 1.826016
3.722095 -2.789346 1.834546
3.739224 -2.760724 1.842988
3.756176 -2.731972 1.851344
3.77295 -2.70309 1.859611
3.789546 -2.67408 1.867791
3.805962 -2.644943 1.875882
3.822197 -2.615681 1.883884
3.838252 -2.586295 1.891797
3.854125 -2.556787 1.899621
3.869816 -2.527158 1.907354
3.885323 -2.497408 1.914998
3.900646 -2.467541 1.92255
3.915785 -2.437557 1.930012
3.930738 -2.407457 1.937382
3.945505 -2.377244 1.94466
3.960085 -2.346917 1.951846
3.974478 -2.31648 1.95894
3.988682 -2.285933 1.965941
4.002697 -2.255278 1.972849
4.016523 -2.224516 1.979664
4.030159 -2.193648 1.986385
4.043604 -2.162677 1.993011
4.056858 -2.131603 1.999544
4.069919 -2.100429 2.005981
4.082788 -2.069155 2.012324
4.095462 -2.037782 2.018571
4.107944 -2.006314 2.024723
4.120231 -1.97475 2.030779
4.132322 -1.943093 2.036739
4.144218 -1.911344 2.042602
4.155918 -1.879504 2.048368
4.16742 -1.847575 2.054038
4.178726 -1.815559 2.05961
4.189834 -1.783457 2.065085
4.200743 -1.75127 2.070462
4.211453 -1.719001 2.075741
4.221964 -1.68665 2.080921
4.232275 -1.654219 2.086003
4.242385 -1.62171 2.090986
4.252295 -1.589124 2.095871
4.262003 -1.556463 2.100656
4.271509 -1.523728 2.105341
4.280813 -1.490921 2.109927
4.289915 -1.458043 2.114413
4.298813 -1.425096 2.118798
4.307508 -1.392082 2.123084
4.315998 -1.359002 2.127269
4.324285 -1.325857 2.131353
4.332366 -1.29265 2.135336
4.340242 -1.259382 2.139218
4.347913 -1.226053 2.142999
4.355378 -1.192667 2.146678
4.362637 -1.159225 2.150256
4.369689 -1.125727 2.153732
4.376534 -1.092176 2.157106
4.383172 -1.058573 2.160377
4.389602 -1.024921 2.163547
1.811432 -0.4129668 0.893616
1.790716 -0.3828975 0.870403
1.777123 -0.3755361 0.8870872
1.777899 -0.3548174 0.8681346
1.763424 -0.3350608 0.8661708
1.749833 -0.3304715 0.8680441
1.743872 -0.3124821 0.8598015
1.734922 -0.2923958 0.8552282
1.730727 -0.2822226 0.8501508
1.712204 -0.2649723 0.8422258
1.702252 -0.249187 0.8363518
1.706194 -0.2303358 0.8448998
1.69161 -0.2203618 0.8368345
1.703749 -0.2149191 0.8406143
1.694474 -0.1880724 0.8287754
1.698633 -0.1818047 0.8331156
1.692411 -0.1646061 0.8307878
1.691006 -0.1500682 0.8390908
1.694834 -0.1376976 0.8347626
1.694363 -0.1319678 0.8379643
1.714529 -0.1156528 0.837297
1.706081 -0.0917418 0.8457372
1.726205 -0.09338246 0.8540782
1.736953 -0.07726555 0.8557233
1.75913 -0.06055695 0.861631
1.796921 -0.05596611 0.8790854
1.857917 -0.04088752 0.9278756
1.857718 -0.02938627 0.9084749
1.842583 -0.01692988 0.903406
1.831716 0.009473274 0.9043046
1.825222 0.01666687 0.9016191
1.84333 0.03220775 0.9115471
1.853621 0.0451938 0.9142804
1.865998 0.05285516 0.9026906
1.871056 0.078231 0.9288037
1.73768 0.07267418 0.8577997
1.70376 0.08748789 0.84337
1.659801 0.1073072 0.8119794
1.635412 0.1175291 0.7889511
1.61435 0.1199427 0.7859012
1.584115 0.131886 0.7887954
1.598274 0.1504699 0.7815276
1.596839 0.1558158 0.7803276
1.597573 0.1719052 0.7963533
1.581446 0.187591 0.7813395
1.566697 0.1898833 0.7786498
1.561501 0.2088154 0.7741497
1.553511 0.2111565 0.7738459
1.55261 0.2279513 0.7528204
1.54894 0.2352398 0.7696577
1.544888 0.2523942 0.7654806
1.54612 0.2628337 0.7603002
1.543602 0.2771848 0.7637235
1.53849 0.2840221 0.7644878
1.545855 0.3068771 0.7615916
1.557372 0.3118002 0.7617385
1.560957 0.3288583 0.7774167
1.642951 0.365405 0.8149253
4.395824 0.9912195 2.166614
4.389602 1.024921 2.163547
4.383172 1.058573 2.160377
4.376534 1.092176 2.157106
4.369689 1.125727 2.153732
4.362637 1.159225 2.150256
4.355378 1.192667 2.146678
4.347913 1.226053 2.142999
4.340242 1.259382 2.139218
4.332366 1.29265 2.135336
4.324285 1.325857 2.131353
4.315998 1.359002 2.127269
4.307508 1.392082 2.123084
4.298813 1.425096 2.118798
4.289915 1.458043 2.114413
4.280813 1.490921 2.109927
4.271509 1.523728 2.105341
4.262003 1.556463 2.100656
4.252295 1.589124 2.095871
4.242385 1.62171 2.090986
4.232275 1.654219 2.086003
4.221964 1.68665 2.080921
4.211453 1.719001 2.075741
4.200743 1.75127 2.070462
4.189834 1.783457 2.065085
4.178726 1.815559 2.05961
4.16742 1.847575 2.054038
4.155918 1.879504 2.048368
4.144218 1.911344 2.042602
4.132322 1.943093 2.036739
4.120231 1.97475 2.030779
4.107944 2.006314 2.024723
4.095462 2.037782 2.018571
4.082788 2.069155 2.012324
4.069919 2.100429 2.005981
4.056858 2.131603 1.999544
4.043604 2.162677 1.993011
4.030159 2.193648 1.986385
4.016523 2.224516 1.979664
4.002697 2.255278 1.972849
3.988682 2.285933 1.965941
3.974478 2.31648 1.95894
3.960085 2.346917 1.951846
3.945505 2.377244 1.94466
3.930738 2.407457 1.937382
3.915785 2.437557 1.930012
3.900646 2.467541 1.92255
3.885323 2.497408 1.914998
3.869816 2.527158 1.907354
3.854125 2.556787 1.899621
3.838252 2.586295 1.891797
3.822197 2.615681 1.883884
3.805962 2.644943 1.875882
3.789546 2.67408 1.867791
3.77295 2.70309 1.859611
3.756176 2.731972 1.851344
3.739224 2.760724 1.842988
3.722095 2.789346 1.834546
3.704789 2.817836 1.826016
3.696071 2.832031 1.821719
3.692222 -2.817836 1.851295
3.709469 -2.789346 1.859943
3.72654 -2.760724 1.868502
3.743435 -2.731972 1.876973
3.760152 -2.70309 1.885355
3.776691 -2.67408 1.893648
3.793051 -2.644943 1.901851
3.809232 -2.615681 1.909964
3.825233 -2.586295 1.917987
3.841052 -2.556787 1.925919
3.856689 -2.527158 1.933759
3.872144 -2.497408 1.941508
3.887415 -2.467541 1.949165
3.902502 -2.437557 1.95673
3.917405 -2.407457 1.964202
3.932122 -2.377244 1.971581
3.946652 -2.346917 1.978867
3.960996 -2.31648 1.986059
3.975152 -2.285933 1.993157
3.98912 -2.255278 2.000161
4.002899 -2.224516 2.00707
4.016489 -2.193648 2.013884
4.029888 -2.162677 2.020602
4.043096 -2.131603 2.027225
4.056113 -2.100429 2.033751
4.068938 -2.069155 2.040182
4.08157 -2.037782 2.046516
4.094009 -2.006314 2.052753
4.106254 -1.97475 2.058892
4.118305 -1.943093 2.064934
4.13016 -1.911344 2.070879
4.14182 -1.879504 2.076725
4.153284 -1.847575 2.082474
4.164551 -1.815559 2.088123
4.175622 -1.783457 2.093673
4.186493 -1.75127 2.099125
4.197167 -1.719001 2.104477
4.207643 -1.68665 2.109729
4.217918 -1.654219 2.114881
4.227994 -1.62171 2.119934
4.237871 -1.589124 2.124885
4.247546 -1.556463 2.129737
4.25702 -1.523728 2.134487
4.266293 -1.490921 2.139136
4.275363 -1.458043 2.143684
4.284231 -1.425096 2.148131
4.292896 -1.392082 2.152475
4.301358 -1.359002 2.156718
4.309616 -1.325857 2.160859
4.31767 -1.29265 2.164897
4.32552 -1.259382 2.168833
4.333165 -1.226053 2.172666
4.340604 -1.192667 2.176396
4.347838 -1.159225 2.180023
4.354866 -1.125727 2.183547
4.361688 -1.092176 2.186968
4.368303 -1.058573 2.190285
4.374712 -1.024921 2.193498
1.793519 -0.4058582 0.907531
1.786552 -0.3849618 0.8957227
1.774315 -0.3739883 0.8781962
1.764365 -0.3601963 0.8908119
1.762385 -0.3399028 0.8841305
1.760692 -0.3239828 0.869962
1.734717 -0.3080584 0.8645923
1.738829 -0.2986715 0.8676009
1.718165 -0.2872787 0.8653497
1.717709 -0.2605527 0.8613532
1.712451 -0.2509978 0.8508065
1.702139 -0.235752 0.8506775
1.694817 -0.2250588 0.8539685
1.677789 -0.2095321 0.8402255
1.689603 -0.1905492 0.8423688
1.692308 -0.1918279 0.8457843
1.683855 -0.1677142 0.840998
1.701423 -0.1607822 0.8494702
1.692603 -0.1492873 0.854125
1.69398 -0.1250797 0.8570525
1.705238 -0.1177101 0.8549421
1.707519 -0.108331 0.866457
1.717953 -0.09013414 0.8583529
1.733981 -0.08419444 0.8706436
1.745333 -0.06707115 0.8700892
1.778056 -0.05002619 0.8952596
1.862877 -0.05303505 0.933498
1.842289 -0.03014928 0.9294537
1.831258 -0.009123357 0.920074
1.825562 0.001285639 0.9227893
1.809671 0.008217107 0.9048894
1.83202 0.02005913 0.9210371
1.847436 0.04028038 0.931766
1.860352 0.06512839 0.925454
1.861982 0.06942427 0.9382637
1.737302 0.07712738 0.8810979
1.693091 0.07823224 0.8533892
1.665735 0.09543917 0.8302153
1.62057 0.1068501 0.8097659
1.594499 0.1304126 0.8009325
1.587114 0.132345 0.7958242
1.595323 0.1443456 0.7941272
1.584442 0.1612714 0.7921922
1.748894 0.194109 0.8731692
1.575864 0.193446 0.8023281
1.579544 0.1865688 0.7877073
1.562039 0.1980584 0.7874963
1.559487 0.2258459 0.7875745
1.558635 0.2335963 0.7879582
1.56629 0.2456826 0.7783462
1.550913 0.2507322 0.7738135
1.555585 0.2624224 0.7774591
1.552133 0.2845398 0.7845455
1.558152 0.2850365 0.7805786
1.552822 0.3069196 0.7823021
1.63491 0.3354696 0.8176881
1.622325 0.3471098 0.8131714
1.634347 0.350305 0.8188215
4.380913 0.9912195 2.196607
4.374712 1.024921 2.193498
4.368303 1.058573 2.190285
4.361688 1.092176 2.186968
4.354866 1.125727 2.183547
4.347838 1.159225 2.180023
4.340604 1.192667 2.176396
4.333165 1.226053 2.172666
4.32552 1.259382 2.168833
4.31767 1.29265 2.164897
4.309616 1.325857 2.160859
4.301358 1.359002 2.156718
4.292896 1.392082 2.152475
4.284231 1.425096 2.148131
4.275363 1.458043 2.143684
4.266293 1.490921 2.139136
4.25702 1.523728 2.134487
4.247546 1.556463 2.129737
4.237871 1.589124 2.124885
4.227994 1.62171 2.119934
4.217918 1.654219 2.114881
4.207643 1.68665 2.109729
4.197167 1.719001 2.104477
4.186493 1.75127 2.099125
4.175622 1.783457 2.093673
4.164551 1.815559 2.088123
4.153284 1.847575 2.082474
4.14182 1.879504 2.076725
4.13016 1.911344 2.070879
4.118305 1.943093 2.064934
4.106254 1.97475 2.058892
4.094009 2.006314 2.052753
4.08157 2.037782 2.046516
4.068938 2.069155 2.040182
4.056113 2.100429 2.033751
4.043096 2.131603 2.027225
4.029888 2.162677 2.020602
4.016489 2.193648 2.013884
4.002899 2.224516 2.00707
3.98912 2.255278 2.000161
3.975152 2.285933 1.993157
3.960996 2.31648 1.986059
3.946652 2.346917 1.978867
3.932122 2.377244 1.971581
3.917405 2.407457 1.964202
3.902502 2.437557 1.95673
3.887415 2.467541 1.949165
3.872144 2.497408 1.941508
3.856689 2.527158 1.933759
3.841052 2.556787 1.925919
3.825233 2.586295 1.917987
3.809232 2.615681 1.909964
3.793051 2.644943 1.901851
3.776691 2.67408 1.893648
3.760152 2.70309 1.885355
3.743435 2.731972 1.876973
3.72654 2.760724 1.868502
3.709469 2.789346 1.859943
3.692222 2.817836 1.851295
3.683533 2.832031 1.846938
3.679483 -2.817836 1.876487
3.69667 -2.789346 1.885253
3.713682 -2.760724 1.893929
3.730518 -2.731972 1.902515
3.747178 -2.70309 1.911011
3.76366 -2.67408 1.919417
3.779964 -2.644943 1.927732
3.796089 -2.615681 1.935955
3.812034 -2.586295 1.944087
3.827799 -2.556787 1.952127
3.843382 -2.527158 1.960074
3.858783 -2.497408 1.967928
3.874002 -2.467541 1.97569
3.889037 -2.437557 1.983357
3.903888 -2.407457 1.990931
3.918554 -2.377244 1.998411
3.933035 -2.346917 2.005795
3.947329 -2.31648 2.013086
3.961436 -2.285933 2.02028
3.975356 -2.255278 2.027379
3.989088 -2.224516 2.034382
4.00263 -2.193648 2.041288
4.015983 -2.162677 2.048098
4.029146 -2.131603 2.054811
4.042118 -2.100429 2.061427
4.054899 -2.069155 2.067945
4.067487 -2.037782 2.074365
4.079884 -2.006314 2.080687
4.092086 -1.97475 2.08691
4.104095 -1.943093 2.093034
4.11591 -1.911344 2.09906
4.12753 -1.879504 2.104985
4.138954 -1.847575 2.110812
4.150182 -1.815559 2.116538
4.161214 -1.783457 2.122164
4.172049 -1.75127 2.12769
4.182686 -1.719001 2.133114
4.193125 -1.68665 2.138438
4.203365 -1.654219 2.143661
4.213407 -1.62171 2.148782
4.223248 -1.589124 2.153801
4.23289 -1.556463 2.158718
4.242332 -1.523728 2.163533
4.251572 -1.490921 2.168246
4.260612 -1.458043 2.172855
4.269449 -1.425096 2.177362
4.278084 -1.392082 2.181766
4.286517 -1.359002 2.186067
4.294746 -1.325857 2.190264
4.302773 -1.29265 2.194357
4.310595 -1.259382 2.198346
4.318213 -1.226053 2.202232
4.325627 -1.192667 2.206013
4.332837 -1.159225 2.209689
4.33984 -1.125727 2.213261
4.346639 -1.092176 2.216728
4.353231 -1.058573 2.22009
4.359618 -1.024921 2.223347
1.783099 -0.4073276 0.9129232
1.784405 -0.3840306 0.9035
1.766679 -0.3790064 0.912204
1.761082 -0.3525238 0.8960626
1.753693 -0.3429486 0.8972641
1.740743 -0.3164219 0.8823637
1.736859 -0.3042443 0.8855529
1.724768 -0.2977304 0.8849426
1.71011 -0.2821477 0.879815
1.705471 -0.2650604 0.8708395
1.697474 -0.2560227 0.8604556
1.692685 -0.2336253 0.8632661
1.677332 -0.2258175 0.8590099
1.691476 -0.2079291 0.8600947
1.671535 -0.1966918 0.8594554
1.682177 -0.1841168 0.8586801
1.685971 -0.1673438 0.8528498
1.677306 -0.1578706 0.8654941
1.680294 -0.1473806 0.8578515
1.685144 -0.1365212 0.86445
1.695117 -0.123036 0.864958
1.699495 -0.096902 0.8677065
1.719551 -0.08935347 0.8731585
1.719584 -0.07361831 0.8735949
1.749302 -0.06783314 0.8797852
1.764576 -0.05198637 0.9128993
1.865559 -0.04715224 0.9483475
1.84099 -0.02179207 0.9390897
1.824174 -0.009403683 0.9478346
1.813371 -0.00381641 0.9246624
1.80792 0.02269141 0.9224839
1.81986 0.02466248 0.9277432
1.847172 0.04641433 0.9508798
1.846954 0.0487396 0.9407423
1.85218 0.0626189 0.9500021
1.738321 0.08519038 0.8909387
1.704023 0.09351759 0.8606675
1.654038 0.09409153 0.8341063
1.615096 0.112831 0.8213177
1.584989 0.1259165 0.8089983
1.574953 0.1378299 0.8030563
1.587177 0.1464796 0.7995403
1.577738 0.1659375 0.8017276
1.726357 0.1889578 0.8750251
1.574547 0.2000111 0.8085517
1.579156 0.1854893 0.7976007
1.569028 0.2010598 0.8037507
1.560337 0.2165296 0.789321
1.559999 0.2237876 0.7997195
1.55459 0.2404717 0.7952903
1.55055 0.2606747 0.8012497
1.560062 0.2687348 0.7922254
1.564326 0.2762901 0.806985
1.567031 0.2870287 0.7956354
1.608209 0.3064049 0.8263199
1.61609 0.333554 0.8274985
1.613458 0.3409382 0.8181903
1.623025 0.3611086 0.8176171
4.365798 0.9912195 2.226499
4.359618 1.024921 2.223347
4.353231 1.058573 2.22009
4.346639 1.092176 2.216728
4.33984 1.125727 2.213261
4.332837 1.159225 2.209689
4.325627 1.192667 2.206013
4.318213 1.226053 2.202232
4.310595 1.259382 2.198346
4.302773 1.29265 2.194357
4.294746 1.325857 2.190264
4.286517 1.359002 2.186067
4.278084 1.392082 2.181766
4.269449 1.425096 2.177362
4.260612 1.458043 2.172855
4.251572 1.490921 2.168246
4.242332 1.523728 2.163533
4.23289 1.556463 2.158718
4.223248 1.589124 2.153801
4.213407 1.62171 2.148782
4.203365 1.654219 2.143661
4.193125 1.68665 2.138438
4.182686 1.719001 2.133114
4.172049 1.75127 2.12769
4.161214 1.783457 2.122164
4.150182 1.815559 2.116538
4.138954 1.847575 2.110812
4.12753 1.879504 2.104985
4.11591 1.911344 2.09906
4.104095 1.943093 2.093034
4.092086 1.97475 2.08691
4.079884 2.006314 2.080687
4.067487 2.037782 2.074365
4.054899 2.069155 2.067945
4.042118 2.100429 2.061427
4.029146 2.131603 2.054811
4.015983 2.162677 2.048098
4.00263 2.193648 2.041288
3.989088 2.224516 2.034382
3.975356 2.255278 2.027379
3.961436 2.285933 2.02028
3.947329 2.31648 2.013086
3.933035 2.346917 2.005795
3.918554 2.377244 1.998411
3.903888 2.407457 1.990931
3.889037 2.437557 1.983357
3.874002 2.467541 1.97569
3.858783 2.497408 1.967928
3.843382 2.527158 1.960074
3.827799 2.556787 1.952127
3.812034 2.586295 1.944087
3.796089 2.615681 1.935955
3.779964 2.644943 1.927732
3.76366 2.67408 1.919417
3.747178 2.70309 1.911011
3.730518 2.731972 1.902515
3.713682 2.760724 1.893929
3.69667 2.789346 1.885253
3.679483 2.817836 1.876487
3.670824 2.832031 1.872072
3.666571 -2.817836 1.901592
3.683698 -2.789346 1.910475
3.700651 -2.760724 1.919267
3.717428 -2.731972 1.927968
3.734029 -2.70309 1.936578
3.750453 -2.67408 1.945096
3.7667 -2.644943 1.953522
3.782768 -2.615681 1.961855
3.798658 -2.586295 1.970096
3.814367 -2.556787 1.978243
3.829895 -2.527158 1.986297
3.845243 -2.497408 1.994256
3.860408 -2.467541 2.002121
3.875391 -2.437557 2.009892
3.890189 -2.407457 2.017567
3.904804 -2.377244 2.025146
3.919234 -2.346917 2.03263
3.933478 -2.31648 2.040018
3.947536 -2.285933 2.047308
3.961406 -2.255278 2.054502
3.97509 -2.224516 2.061599
3.988585 -2.193648 2.068598
4.001891 -2.162677 2.075499
4.015008 -2.131603 2.082302
4.027935 -2.100429 2.089006
4.04067 -2.069155 2.095611
4.053215 -2.037782 2.102117
4.065567 -2.006314 2.108523
4.077727 -1.97475 2.11483
4.089694 -1.943093 2.121036
4.101467 -1.911344 2.127142
4.113046 -1.879504 2.133147
4.12443 -1.847575 2.139051
4.135619 -1.815559 2.144854
4.146612 -1.783457 2.150555
4.157409 -1.75127 2.156155
4.168008 -1.719001 2.161652
4.178411 -1.68665 2.167047
4.188615 -1.654219 2.17234
4.198622 -1.62171 2.177529
4.208429 -1.589124 2.182616
4.218037 -1.556463 2.187598
4.227445 -1.523728 2.192478
4.236653 -1.490921 2.197253
4.245661 -1.458043 2.201925
4.254467 -1.425096 2.206492
4.263072 -1.392082 2.210955
4.271475 -1.359002 2.215313
4.279676 -1.325857 2.219566
4.287674 -1.29265 2.223714
4.295469 -1.259382 2.227757
4.303061 -1.226053 2.231694
4.310449 -1.192667 2.235526
4.317633 -1.159225 2.239252
4.324612 -1.125727 2.242871
4.331386 -1.092176 2.246385
4.337955 -1.058573 2.249792
1.797186 -0.4275744 0.9210861
1.780276 -0.4032218 0.9147962
1.781236 -0.3839671 0.9231912
1.762637 -0.3757457 0.9117665
1.753177 -0.3645934 0.9153604
1.737762 -0.3488909 0.9050537
1.744555 -0.3271971 0.9004995
1.732937 -0.3103962 0.9010033
1.72075 -0.2931917 0.896511
1.711559 -0.2812963 0.9005045
1.700602 -0.2625078 0.8862862
1.684069 -0.2589121 0.8833278
1.685068 -0.2315063 0.8824379
1.679592 -0.2204928 0.8706279
1.671932 -0.2082204 0.8653124
1.672606 -0.2022793 0.8635868
1.672546 -0.1778873 0.8720942
1.665034 -0.1748477 0.8666586
1.673117 -0.1616273 0.8685035
1.677031 -0.1500162 0.8746272
1.677853 -0.1273642 0.8790611
1.692243 -0.1188873 0.8669097
1.695425 -0.1008417 0.8812665
1.7079 -0.08805914 0.8799097
1.717236 -0.09053902 0.8888605
1.739748 -0.06728996 0.8944812
1.762937 -0.05945894 0.9155735
1.846348 -0.04621339 0.9563376
1.829993 -0.0273621 0.9515228
1.819155 -0.01785761 0.940956
1.806627 -0.009567462 0.9373687
1.806368 0.01721318 0.9343648
1.817631 0.02492997 0.9459689
1.833817 0.04727482 0.9413479
1.841569 0.05245083 0.9557027
1.852272 0.07638226 0.9660247
1.733079 0.08149356 0.8987012
1.689341 0.0921484 0.8704183
1.649581 0.1030685 0.8461574
1.607252 0.1046253 0.8378365
1.586428 0.1275845 0.8274112
1.573631 0.1286598 0.8155018
1.569495 0.1519897 0.8222171
1.569765 0.1584563 0.8175262
1.726285 0.1877468 0.9028806
1.585036 0.1794647 0.8128464
1.573182 0.1900203 0.8162688
1.572308 0.2120539 0.8173069
1.580143 0.2134055 0.8204587
1.564753 0.2292717 0.8103738
1.570933 0.250795 0.8153403
1.567498 0.260051 0.8076339
1.568496 0.2697344 0.8194008
1.577569 0.2912258 0.8234674
1.591383 0.3053198 0.8303202
1.601817 0.30808 0.8306698
1.606018 0.3277117 0.8271585
1.608458 0.3406042 0.8338264
1.617532 0.3561281 0.8390306
4.350478 0.9912195 2.256286
4.344319 1.024921 2.253092
4.337955 1.058573 2.249792
4.331386 1.092176 2.246385
4.324612 1.125727 2.242871
4.317633 1.159225 2.239252
4.310449 1.192667 2.235526
4.303061 1.226053 2.231694
4.295469 1.259382 2.227757
4.287674 1.29265 2.223714
4.279676 1.325857 2.219566
4.271475 1.359002 2.215313
4.263072 1.392082 2.210955
4.254467 1.425096 2.206492
4.245661 1.458043 2.201925
4.236653 1.490921 2.197253
4.227445 1.523728 2.192478
4.218037 1.556463 2.187598
4.208429 1.589124 2.182616
4.198622 1.62171 2.177529
4.188615 1.654219 2.17234
4.178411 1.68665 2.167047
4.168008 1.719001 2.161652
4.157409 1.75127 2.156155
4.146612 1.783457 2.150555
4.135619 1.815559 2.144854
4.12443 1.847575 2.139051
4.113046 1.879504 2.133147
4.101467 1.911344 2.127142
4.089694 1.943093 2.121036
4.077727 1.97475 2.11483
4.065567 2.006314 2.108523
4.053215 2.037782 2.102117
4.04067 2.069155 2.095611
4.027935 2.100429 2.089006
4.015008 2.131603 2.082302
4.001891 2.162677 2.075499
3.988585 2.193648 2.068598
3.97509 2.224516 2.061599
3.961406 2.255278 2.054502
3.947536 2.285933 2.047308
3.933478 2.31648 2.040018
3.919234 2.346917 2.03263
3.904804 2.377244 2.025146
3.890189 2.407457 2.017567
3.875391 2.437557 2.009892
3.860408 2.467541 2.002121
3.845243 2.497408 1.994256
3.829895 2.527158 1.986297
3.814367 2.556787 1.978243
3.798658 2.586295 1.970096
3.782768 2.615681 1.961855
3.7667 2.644943 1.953522
3.750453 2.67408 1.945096
3.734029 2.70309 1.936578
3.717428 2.731972 1.927968
3.700651 2.760724 1.919267
3.683698 2.789346 1.910475
3.666571 2.817836 1.901592
3.657943 2.832031 1.897117
3.653489 -2.817836 1.926608
3.670555 -2.789346 1.935607
3.687447 -2.760724 1.944515
3.704164 -2.731972 1.953331
3.720706 -2.70309 1.962054
3.737072 -2.67408 1.970684
3.75326 -2.644943 1.979221
3.769271 -2.615681 1.987664
3.785104 -2.586295 1.996013
3.800757 -2.556787 2.004267
3.81623 -2.527158 2.012427
3.831523 -2.497408 2.020491
3.846634 -2.467541 2.02846
3.861563 -2.437557 2.036332
3.876309 -2.407457 2.044109
3.890871 -2.377244 2.051788
3.90525 -2.346917 2.05937
3.919443 -2.31648 2.066854
3.93345 -2.285933 2.074241
3.947272 -2.255278 2.08153
3.960907 -2.224516 2.08872
3.974353 -2.193648 2.095811
3.987612 -2.162677 2.102803
4.000682 -2.131603 2.109695
4.013562 -2.100429 2.116487
4.026253 -2.069155 2.123179
4.038753 -2.037782 2.129771
4.051061 -2.006314 2.136261
4.063177 -1.97475 2.142651
4.075101 -1.943093 2.148939
4.086833 -1.911344 2.155125
4.098371 -1.879504 2.161209
4.109714 -1.847575 2.167191
4.120863 -1.815559 2.17307
4.131817 -1.783457 2.178847
4.142575 -1.75127 2.18452
4.153137 -1.719001 2.190089
4.163502 -1.68665 2.195555
4.17367 -1.654219 2.200917
4.18364 -1.62171 2.206175
4.193413 -1.589124 2.211328
4.202987 -1.556463 2.216377
4.212361 -1.523728 2.22132
4.221537 -1.490921 2.226159
4.230512 -1.458043 2.230892
4.239287 -1.425096 2.235519
4.247861 -1.392082 2.240041
4.256234 -1.359002 2.244456
4.264406 -1.325857 2.248765
4.272376 -1.29265 2.252968
4.280143 -1.259382 2.257064
4.287707 -1.226053 2.261053
4.295069 -1.192667 2.264935
4.302227 -1.159225 2.268709
4.309181 -1.125727 2.272377
4.315931 -1.092176 2.275936
4.322477 -1.058573 2.279388
1.788005 -0.4242652 0.9453431
1.77781 -0.4001085 0.9282534
1.766368 -0.3869671 0.9270388
1.748191 -0.377042 0.9255059
1.73873 -0.3610718 0.925123
1.734469 -0.3479792 0.9127912
1.730368 -0.3273145 0.9175384
1.719345 -0.319398 0.9063448
1.712114 -0.2937279 0.9097381
1.703064 -0.2775921 0.8972422
1.690852 -0.2566493 0.8930579
1.701687 -0.2452424 0.8855695
1.679169 -0.2340528 0.8871234
1.663548 -0.2164163 0.8829565
1.672736 -0.2168306 0.8892084
1.669802 -0.2031882 0.879321
1.654391 -0.1812241 0.8738352
1.667751 -0.1656674 0.879419
1.661096 -0.1631547 0.8855264
1.672775 -0.1441246 0.8793264
1.684052 -0.1387911 0.8824669
1.669931 -0.1083976 0.8853332
1.688746 -0.1044108 0.8905001
1.69145 -0.09490444 0.9036178
1.70514 -0.09312093 0.9030991
1.731709 -0.08552665 0.9176311
1.767995 -0.05715877 0.9323656
1.836041 -0.04336174 0.965767
1.824804 -0.02858498 0.9618669
1.813592 -0.008489886 0.9501824
1.803945 0.003742665 0.9513389
1.795728 0.01434962 0.9493084
1.811714 0.02881601 0.9566529
1.818566 0.03492752 0.9693927
1.831004 0.05776022 0.9634268
1.856554 0.06758515 0.9748288
1.723871 0.0814609 0.9093598
1.676929 0.08704287 0.8903464
1.636369 0.1041744 0.8650538
1.608984 0.1113391 0.8473843
1.571091 0.1182818 0.8305255
1.559334 0.1420006 0.8228486
1.562251 0.1500949 0.8247693
1.566457 0.1709938 0.8277478
1.725301 0.1825217 0.9053527
1.57578 0.1849795 0.8251223
1.567097 0.1932444 0.8316572
1.569919 0.2082056 0.8208433
1.564205 0.2155097 0.8177339
1.564616 0.2298324 0.8241071
1.567738 0.2372736 0.8333492
1.55971 0.2538161 0.8248249
1.566274 0.2744545 0.8264498
1.573276 0.2811798 0.8309322
1.589749 0.299729 0.8439947
1.59548 0.3125606 0.8432631
1.59606 0.3258874 0.8436071
1.601093 0.3491523 0.8366825
1.612545 0.3494934 0.8425329
4.334955 0.9912195 2.285968
4.328819 1.024921 2.282732
4.322477 1.058573 2.279388
4.315931 1.092176 2.275936
4.309181 1.125727 2.272377
4.302227 1.159225 2.268709
4.295069 1.192667 2.264935
4.287707 1.226053 2.261053
4.280143 1.259382 2.257064
4.272376 1.29265 2.252968
4.264406 1.325857 2.248765
4.256234 1.359002 2.244456
4.247861 1.392082 2.240041
4.239287 1.425096 2.235519
4.230512 1.458043 2.230892
4.221537 1.490921 2.226159
4.212361 1.523728 2.22132
4.202987 1.556463 2.216377
4.193413 1.589124 2.211328
4.18364 1.62171 2.206175
4.17367 1.654219 2.200917
4.163502 1.68665 2.195555
4.153137 1.719001 2.190089
4.142575 1.75127 2.18452
4.131817 1.783457 2.178847
4.120863 1.815559 2.17307
4.109714 1.847575 2.167191
4.098371 1.879504 2.161209
4.086833 1.911344 2.155125
4.075101 1.943093 2.148939
4.063177 1.97475 2.142651
4.051061 2.006314 2.136261
4.038753 2.037782 2.129771
4.026253 2.069155 2.123179
4.013562 2.100429 2.116487
4.000682 2.131603 2.109695
3.987612 2.162677 2.102803
3.974353 2.193648 2.095811
3.960907 2.224516 2.08872
3.947272 2.255278 2.08153
3.93345 2.285933 2.074241
3.919443 2.31648 2.066854
3.90525 2.346917 2.05937
3.890871 2.377244 2.051788
3.876309 2.407457 2.044109
3.861563 2.437557 2.036332
3.846634 2.467541 2.02846
3.831523 2.497408 2.020491
3.81623 2.527158 2.012427
3.800757 2.556787 2.004267
3.785104 2.586295 1.996013
3.769271 2.615681 1.987664
3.75326 2.644943 1.979221
3.737072 2.67408 1.970684
3.720706 2.70309 1.962054
3.704164 2.731972 1.953331
3.687447 2.760724 1.944515
3.670555 2.789346 1.935607
3.653489 2.817836 1.926608
3.644891 2.832031 1.922074
3.646883 -2.817836 1.939082
3.663918 -2.789346 1.94814
3.68078 -2.760724 1.957105
3.697467 -2.731972 1.965978
3.713979 -2.70309 1.974758
3.730315 -2.67408 1.983444
3.746475 -2.644943 1.992036
3.762456 -2.615681 2.000534
3.77826 -2.586295 2.008937
3.793885 -2.556787 2.017245
3.80933 -2.527158 2.025457
3.824595 -2.497408 2.033573
3.839679 -2.467541 2.041594
3.854581 -2.437557 2.049517
3.869301 -2.407457 2.057343
3.883837 -2.377244 2.065073
3.898189 -2.346917 2.072704
3.912357 -2.31648 2.080237
3.926339 -2.285933 2.087672
3.940135 -2.255278 2.095007
3.953745 -2.224516 2.102244
3.967168 -2.193648 2.10938
3.980402 -2.162677 2.116418
3.993449 -2.131603 2.123354
4.006306 -2.100429 2.130191
4.018973 -2.069155 2.136926
