# .PCD v.7 - Point Cloud Data file format
FIELDS x y z
SIZE 4 4 4
TYPE F F F
COUNT 1 1 1
WIDTH 1565
HEIGHT 1
VIEWPOINT 0 0 0 1 0 0 0
POINTS 1565
DATA ascii
2.091236 -1.415579 -0.009694971
2.092985 -1.404498 -0.01085868
2.085009 -1.382071 -0.0211605
2.099726 -1.352042 -0.01484475
2.090554 -1.33758 -0.01664897
2.085781 -1.319505 -0.02341039
2.087589 -1.297552 -0.01451879
2.079066 -1.28004 -0.0173256
2.094847 -1.258356 -0.008676413
2.084799 -1.245258 -0.02446394
2.083612 -1.224024 -0.01641013
2.08861 -1.202993 -0.01722492
2.079622 -1.183792 -0.01339669
2.085097 -1.158857 -0.02126688
2.08744 -1.143255 -0.02019726
2.088078 -1.126892 -0.003795782
2.080454 -1.100769 -0.01045282
2.082938 -1.092778 -0.01771715
2.081965 -1.07714 -0.02755758
2.083187 -1.055427 -0.01377346
2.0939 -1.027176 -0.01344958
1.001042 -0.4901651 -0.007163367
0.9997832 -0.4827856 -0.006557065
1.010358 -0.4683357 -0.002915906
1.003061 -0.4648657 -0.009573182
1.001386 -0.4497399 -0.005769919
1.001432 -0.4578419 -0.005277425
1.001066 -0.4419445 -0.001004694
1.006417 -0.4242553 -0.009059481
0.997348 -0.4244836 -0.01033723
1.002391 -0.4120094 0.000919438
1.000962 -0.3993161 -0.01288102
1.001403 -0.4085205 -0.009408556
1.001871 -0.393357 -0.007835583
1.002373 -0.3805853 -0.01098462
1.006104 -0.3787135 -0.01110636
1.00445 -0.3499061 -0.0109796
1.004851 -0.3585162 -0.006650356
0.9983403 -0.3474092 -0.007962706
1.003881 -0.3529058 -0.009402342
1.006045 -0.3402057 -0.001293046
1.010737 -0.3231506 -0.007384247
1.007533 -0.3205507 -6.313307e-05
1.002848 -0.3087247 -0.006848437
1.001105 -0.3113693 -0.008954694
1.003806 -0.2908014 -0.01206229
1.004399 -0.2866952 -0.005346225
1.001098 -0.2926499 -0.002220777
1.009277 -0.2885699 -0.002177102
1.00769 -0.2719825 -0.01013109
1.00492 -0.261286 -0.01815308
1.00541 -0.2630281 -0.007634197
1.00518 -0.2440537 -0.01770421
1.012685 -0.2412117 0.0004929506
1.013017 -0.2322722 -0.004400348
1.009657 -0.2321213 -0.007584725
0.9999536 -0.2232848 -0.0006234777
1.00419 -0.2094716 -0.010593
0.9988897 -0.1945972 -0.0005671171
1.004421 -0.1991728 0.007287432
1.001251 -0.1874362 0.001330017
1.008264 -0.1874976 -0.01198732
1.00081 -0.1860188 -0.008796609
1.009193 -0.1699457 -0.006106302
1.010916 -0.1659598 -0.01749789
1.00497 -0.1480891 -0.008898988
1.005549 -0.1456574 -0.008755443
1.010191 -0.1411798 -0.006683982
1.001629 -0.1288412 -0.01340456
1.00325 -0.1269807 0.005313076
1.011328 -0.1168915 -0.0134747
0.9993671 -0.1105347 -0.002716846
1.007525 -0.1039128 -0.01280235
0.9969119 -0.1006754 -0.001083507
1.002398 -0.09567662 -0.008406883
1.004398 -0.07975923 -0.0002700487
1.014667 -0.07862163 -0.01042851
1.005068 -0.07301833 0.001410614
1.008584 -0.06791685 -0.01087836
1.002122 -0.05370569 0.0005940776
1.015913 -0.06121024 -0.004198212
0.9978135 -0.04596272 -0.008500938
1.006916 -0.04011336 -0.007494401
1.008026 -0.02203865 -0.008804892
1.001847 -0.02192861 -0.002714795
1.006585 -0.01550128 -0.006120169
1.010981 -0.0007205675 -0.01579389
1.001485 -0.001981664 -0.001394526
0.9982122 0.01251397 -0.002174119
0.9955667 0.01862373 -0.003168969
1.006634 0.02296282 -0.001413051
1.000794 0.03024609 -0.01090455
1.005533 0.02598138 -0.006453677
1.004097 0.0336632 0.002211007
1.003474 0.03868885 -0.0009815365
1.008045 0.05618583 -0.007178506
1.000266 0.0605144 -0.008885258
1.006315 0.08219753 -0.0187814
1.004513 0.07276273 0.001567942
1.016062 0.08140712 -0.008914713
1.005329 0.09050315 -0.01027491
1.000869 0.09588122 -0.008330625
1.003701 0.1151515 -0.01247516
1.000296 0.1103429 -0.006102712
1.000694 0.113938 0.004249414
0.9967204 0.12521 -0.0051793
1.00931 0.1236874 -0.006914966
0.9988588 0.1360075 -0.003578935
1.008296 0.1445792 -0.007266197
1.010262 0.1508673 -0.01591475
1.000159 0.1547182 0.002849017
1.003839 0.1688139 -0.001798562
1.006952 0.1784195 -0.005004301
1.00388 0.1872332 -0.007805662
1.011156 0.1894908 -0.007231623
0.9984301 0.1989101 -0.006078999
0.9983531 0.2019221 -0.006611935
1.002496 0.2125254 -0.01313637
1.004634 0.2163801 -0.01868525
0.9975296 0.2259267 -0.008959117
0.9933021 0.2319613 -0.002087876
1.001853 0.2411901 -0.003728881
0.9991641 0.2473878 -0.00759961
1.011312 0.2561098 -0.01345647
1.004479 0.2507041 -0.0104139
1.006084 0.2646462 -0.007082106
1.003873 0.2762917 -0.004106683
1.000584 0.2888944 -0.01208562
1.003219 0.2899125 -0.01057414
0.9995813 0.289714 -0.002791622
1.003319 0.3041429 -0.002006109
1.003569 0.3137845 -0.01235719
1.004584 0.3130948 0.0003151969
1.006437 0.3348457 -0.008661748
1.001349 0.3368218 -0.007708224
0.9915097 0.3352813 -0.006346612
1.00035 0.3628464 -0.002122612
1.001459 0.3582564 -0.00715017
0.9939704 0.3706245 -0.005019036
0.9966248 0.370037 -0.000761736
1.007335 0.3835471 -0.00670532
1.01589 0.3950775 -0.00859997
1.004991 0.399891 -0.00746318
1.006125 0.4039776 -0.005063761
0.9998815 0.4174254 0.0009785086
1.017522 0.4162472 -0.002791901
1.001549 0.4314271 -0.011896
1.004741 0.4415772 -0.0111699
0.989531 0.4449401 -0.003370214
1.005184 0.4566626 -0.004565367
0.9980592 0.4655967 -0.01399473
0.9989153 0.4722172 -0.009548562
0.9959031 0.4722514 -0.001068577
1.00527 0.4841338 -0.009605925
1.003673 0.5053365 -0.008195456
2.074604 1.057619 -0.009104297
2.084729 1.066805 -0.01399196
2.082415 1.080671 -0.01437522
2.081352 1.111574 -0.009710903
2.075513 1.128906 -0.01772312
2.084716 1.139924 -0.01823536
2.072547 1.161037 -0.0210572
2.072686 1.180775 -0.01161595
2.081654 1.194028 -0.0180011
2.074915 1.215991 -0.01636768
2.076022 1.234365 -0.02142545
2.085304 1.257355 -0.01391214
2.075078 1.281881 -0.008497161
2.077667 1.300251 -0.01137044
2.079665 1.325094 -0.01421074
2.075582 1.331608 -0.01962064
2.087427 1.352815 -0.01453013
2.077515 1.376359 -0.01167731
2.074363 1.398592 -0.01655594
2.077048 1.415805 -0.02247658
2.084235 1.429035 -0.01372823
2.113989 -1.438194 0.0008440177
2.11458 -1.421842 -0.003110579
2.117956 -1.399183 -0.004209229
2.111406 -1.38441 0.001740201
2.114349 -1.360009 0.006982733
2.11919 -1.337098 0.004259881
2.111359 -1.315206 0.001396369
2.110651 -1.293477 0.002391257
2.107703 -1.278203 -0.00743664
2.111796 -1.253979 -0.002557994
2.115617 -1.23666 0.006404013
2.113895 -1.215709 -0.00680952
2.11053 -1.191173 0.002212815
2.109128 -1.181881 -0.002631268
2.104091 -1.163734 0.004476523
2.105826 -1.147821 -0.003130968
2.10881 -1.126492 0.00290736
2.106649 -1.110848 0.001702932
2.106903 -1.081253 0.004581699
2.117296 -1.065835 0.005034521
2.10564 -1.049877 -0.005140328
1.017266 -0.4970227 -0.005666362
1.015836 -0.4950604 -0.001805797
1.020207 -0.4692897 0.007716053
1.01819 -0.459855 0.00273707
1.016208 -0.4594153 -0.002293534
1.017835 -0.4523896 0.001008752
1.022157 -0.4487535 0.0105539
1.013173 -0.4315727 -0.006091587
1.02157 -0.4321459 -0.003253688
1.018978 -0.4271258 -0.006357855
1.02129 -0.4199176 -0.007570123
1.01627 -0.4078843 -0.002762099
1.021936 -0.3907593 0.004218125
1.007752 -0.3896302 5.822749e-05
1.010679 -0.3880991 0.01339078
1.022314 -0.3728407 -0.006343281
1.018879 -0.3571684 -0.0006840389
1.015299 -0.3474148 -0.0002538604
1.014379 -0.3495045 0.003799353
1.018687 -0.3423211 -0.0001361884
1.016304 -0.3339809 0.004652851
1.020179 -0.3307588 0.004954356
1.011396 -0.317809 -0.005585747
1.019148 -0.30627 0.005415311
1.015859 -0.3003324 -0.006972943
1.012667 -0.2842745 -0.001205922
1.024298 -0.2897903 -0.002873133
1.021376 -0.2757971 0.0002140782
1.003678 -0.2716248 0.001358606
1.02036 -0.2654108 -0.003874944
1.010466 -0.2579129 0.0005492482
1.01723 -0.2531149 0.0004815309
1.010588 -0.2463088 0.002295632
1.022286 -0.2318279 0.004800199
1.012289 -0.224515 0.002527524
1.010894 -0.2268035 0.007174948
1.014778 -0.2127901 0.002038435
1.003401 -0.2068763 -0.0005475171
1.012241 -0.2071033 -0.003719473
1.004692 -0.1968855 0.003607251
1.013942 -0.1903701 0.008785476
1.012747 -0.1740225 -0.01092676
1.018637 -0.1723235 0.000181442
1.014405 -0.1601646 -0.004971664
1.018701 -0.149497 0.009290091
1.022881 -0.1518319 0.0008218315
1.016369 -0.1427523 0.01572235
1.015634 -0.138944 0.008115681
1.028344 -0.1260233 0.001300213
1.007314 -0.1187391 -0.003867817
1.020559 -0.1147204 -0.0008636822
1.026929 -0.1038156 -0.002831284
1.021764 -0.1069477 0.009139613
1.012884 -0.08849764 -0.002015937
1.021203 -0.0829456 -0.002571661
1.020512 -0.08295944 -0.003417794
1.012123 -0.06346388 0.005893442
1.008855 -0.05957589 0.0006669963
1.020022 -0.05167042 0.00272661
1.005664 -0.05080925 -0.004003137
1.014906 -0.04316536 0.001414267
1.019253 -0.03522355 -6.009952e-05
1.011403 -0.02360026 -0.003740918
1.003988 -0.02409851 -0.001770119
1.018148 -0.0007224008 -0.004406474
1.021866 -0.01159505 0.007511341
1.014568 -0.001575145 -0.001873196
1.013875 0.003772742 -0.0128257
1.011473 0.02115514 -0.002157296
1.009045 0.01751946 -0.00519054
1.018296 0.02294611 -0.007762395
1.013032 0.03690907 9.771981e-05
1.011537 0.03721881 -0.0009634911
1.009703 0.04845404 0.001163708
1.021676 0.05152065 0.00329171
1.011165 0.05771924 -0.004302575
1.006708 0.07366779 -0.007526093
1.015496 0.0769508 0.006820238
1.02582 0.0843126 -0.001219119
1.012754 0.08948278 -0.004334351
1.013444 0.09194574 0.001458506
1.024799 0.09778956 0.005636512
1.014318 0.1122321 0.003843334
1.015708 0.1311384 -0.004749671
1.017017 0.1190419 0.004004254
1.008516 0.1348356 0.008508844
1.013119 0.1406769 0.00376192
1.010607 0.1535037 0.007311403
1.017743 0.1505886 0.0004836314
1.008496 0.1566574 -0.001015596
1.015815 0.1675911 -0.007811387
1.013058 0.1794579 -0.006954673
1.015421 0.1806126 0.0002700229
1.015593 0.1805889 -0.00595915
1.012436 0.2049565 3.315814e-05
1.010674 0.2069464 0.0001575361
1.013026 0.2106425 0.002265835
1.016057 0.2100087 0.001589191
1.018609 0.2205229 0.00696499
1.01396 0.2335565 0.007105687
1.01125 0.2468772 -0.003627245
1.014789 0.2458777 0.003463367
1.022093 0.2524227 -0.002329987
1.014813 0.262909 -0.003275501
1.020762 0.277643 0.005408818
1.016369 0.2726374 0.0009278095
1.016816 0.2880212 -0.005585404
1.008971 0.2951221 0.000101613
1.007144 0.2921567 0.001747193
1.015054 0.2992243 -0.002459089
1.02019 0.3113157 -0.005636948
1.016381 0.3311622 -0.008579609
1.015901 0.3345424 0.0008131401
1.014477 0.3427179 -0.0007545333
1.017012 0.3436276 0.004369593
1.012214 0.3629705 -0.001242456
1.016429 0.3618382 -0.003200411
1.013821 0.3657067 0.01548755
1.012901 0.3820063 0.0002902792
1.013152 0.3967196 -0.01136642
1.018508 0.4001163 -0.005342729
1.017603 0.401041 -0.002268845
1.016283 0.4143919 0.0007351658
1.016513 0.4289956 -0.0005339679
1.021407 0.4214622 0.005584235
1.012112 0.4293859 -0.0005825533
1.015912 0.4484264 0.003058729
1.020938 0.4529067 -0.005954359
1.008645 0.4704049 0.002262297
1.02025 0.4718887 0.002668321
1.012835 0.4828741 -0.002691106
1.017903 0.4892332 0.004773467
1.016588 0.4980646 0.004406926
2.11275 1.048778 0.001976081
2.102271 1.059872 -0.000356047
2.098742 1.085476 0.00340058
2.104351 1.094736 -0.01174531
2.10901 1.10974 -0.001479307
2.116532 1.141583 0.00418637
2.107874 1.160797 -0.01099436
2.10532 1.173497 0.004004118
2.110561 1.19504 -0.001214399
2.09938 1.208082 0.004142291
2.104873 1.233063 -0.004015135
2.098587 1.243023 0.005897082
2.105481 1.267812 0.0004337944
2.093613 1.288845 -0.005871379
2.099592 1.309049 0.0006360855
2.110698 1.330854 -0.001244101
2.107075 1.34201 0.00109359
2.10506 1.376321 0.003817456
2.105949 1.388122 -0.001550517
2.107004 1.411793 0.0004210296
2.094132 1.437588 0.0001639531
2.103537 1.453887 -0.001509747
2.140364 -1.457987 0.01861157
2.138673 -1.440296 0.02395532
2.134634 -1.415758 0.008112641
2.142295 -1.386464 0.01277438
2.144547 -1.369007 0.01260754
2.134614 -1.359142 0.01305079
2.13631 -1.336891 0.01514315
2.130255 -1.311376 0.01651421
2.131256 -1.281017 0.01773811
2.137224 -1.276787 0.009224234
2.134867 -1.2519 0.01027369
2.135192 -1.225674 0.01858629
2.138427 -1.20972 0.006916431
2.136456 -1.193218 0.006092843
2.135917 -1.176185 0.004589499
2.124489 -1.154874 0.01951215
2.140969 -1.144729 0.01192961
2.131801 -1.118537 0.01143498
2.142828 -1.098401 0.01386432
2.134591 -1.083931 0.0184029
2.135342 -1.066782 0.01630186
2.130657 -1.035173 0.006463019
1.025854 -0.4975318 0.009778951
1.021821 -0.4875611 0.007436113
1.027076 -0.4785728 0.01449546
1.031465 -0.4725477 0.01072685
1.02369 -0.4544138 -0.0004553558
1.028374 -0.4492175 0.008285264
1.025829 -0.4406648 0.0008027112
1.02283 -0.4307167 0.001930252
1.025985 -0.4218391 0.003289378
1.025875 -0.4249455 0.008611078
1.038459 -0.4213234 0.00841992
1.030532 -0.3988599 0.01562255
1.024893 -0.3940662 0.003050567
1.030714 -0.3854055 0.009417336
1.030271 -0.3812101 0.01108302
1.02466 -0.3682458 0.001263696
1.028074 -0.364541 0.0005273113
1.034985 -0.354317 -0.002344553
1.032873 -0.3442295 0.006407517
1.026097 -0.342385 0.01216905
1.034762 -0.3338534 0.003037164
1.026964 -0.320654 0.006012378
1.02355 -0.3063987 0.01166559
1.023655 -0.3091315 0.01236835
1.039256 -0.3042468 0.01070134
1.033818 -0.2898585 0.01248031
1.033246 -0.2797979 0.01404335
1.027552 -0.2730441 0.001976516
1.030237 -0.2694245 0.01095116
1.03758 -0.2621203 0.01952235
1.022942 -0.255312 0.01038194
1.038511 -0.2480448 0.004808153
1.038812 -0.2349982 -0.007430527
1.032904 -0.2318534 -0.002215867
1.026129 -0.2239798 -0.001143851
1.03156 -0.2152046 0.0130469
1.028644 -0.20195 0.005254207
1.034167 -0.216367 0.01267364
1.021899 -0.1966066 0.01778862
1.038316 -0.1882058 0.005421394
1.026201 -0.1802488 0.007267969
1.031691 -0.171432 0.009191005
1.025711 -0.1667499 0.01032312
1.031817 -0.1577001 0.0005313493
1.021167 -0.1463145 0.005143361
1.019276 -0.1385204 0.0090296
1.03379 -0.1291193 0.005542075
1.033169 -0.124744 0.01020286
1.024719 -0.123032 0.003614898
1.030977 -0.1158917 0.01815098
1.020979 -0.1029223 -0.006018253
1.025636 -0.09506699 0.008955284
1.030438 -0.09593046 0.008323477
1.026783 -0.08795016 0.01105783
1.024688 -0.07743006 0.006441056
1.025747 -0.07346217 0.003881195
1.025547 -0.063311 0.01030979
1.034408 -0.05355577 -0.0008275328
1.029384 -0.04518584 0.009465953
1.0309 -0.04027119 0.003844969
1.030993 -0.04253218 0.01122861
1.028468 -0.02834271 0.01462725
1.028014 -0.02854576 0.002001761
1.031159 -0.01656981 0.008908737
1.032013 -0.01082036 0.0222797
1.025696 0.006800436 0.001229234
1.034476 0.01373061 0.003690474
1.02498 0.01680818 0.005066625
1.028342 0.01634338 0.006334029
1.034983 0.0349787 0.009066
1.02007 0.039248 0.004950276
1.038078 0.04849658 0.01116717
1.023641 0.04439906 0.009670739
1.028551 0.0542804 0.008485747
1.032681 0.05508794 0.00299819
1.027392 0.07538838 0.0008297305
1.030407 0.07743406 0.006455215
1.033572 0.08550442 0.005754074
1.022585 0.09879075 0.007138136
1.037657 0.09661212 0.006487294
1.022469 0.1019448 0.01431584
1.01948 0.1097461 0.01023367
1.031158 0.1205724 0.005888078
1.022264 0.1338888 0.01213021
1.02501 0.1357599 0.009677197
1.025075 0.1362517 0.003018047
1.022778 0.1372986 0.0157577
1.031067 0.1618502 -0.001958868
1.022138 0.1686397 0.006937336
1.02081 0.1752263 0.008386783
1.023385 0.1780984 0.004060415
1.027295 0.1898952 2.058197e-05
1.024412 0.1941531 -0.002876875
1.028013 0.2038301 0.007459911
1.024339 0.2023323 -0.001588272
1.024601 0.2132583 0.005537742
1.024209 0.2247562 0.01688553
1.029163 0.2306552 0.002206873
1.031075 0.2367239 0.007609736
1.032595 0.2441751 0.01407685
1.021669 0.2511168 0.006813149
1.026903 0.2536525 0.01549238
1.029235 0.2624065 0.01573794
1.026174 0.2718765 0.01006412
1.031285 0.2862669 0.002964839
1.021024 0.2923646 0.01195008
1.025084 0.306765 0.004310559
1.037243 0.3028487 0.009479867
1.033129 0.3125622 0.004893083
1.027128 0.3153128 0.003327973
1.036304 0.328065 0.004436065
1.030367 0.3311476 -0.0005357423
1.021686 0.3370607 0.005346233
1.020584 0.3562834 0.01785894
1.015464 0.3592762 0.007895733
1.019546 0.3610606 0.005690151
1.024997 0.3738221 0.01144581
1.023493 0.3813943 0.00109066
1.017404 0.3832986 0.003455757
1.016098 0.4037158 0.008533416
1.030641 0.4022067 0.006577445
1.035763 0.4129206 0.007113334
1.029317 0.4093992 0.008014118
1.021555 0.4264912 0.003544352
1.029214 0.4431244 0.004698509
1.024726 0.4378983 0.007494049
1.026979 0.4633746 0.01323746
1.031869 0.4703561 0.01179388
1.027276 0.4674281 0.005779678
1.026359 0.4965938 0.00698621
1.032026 0.4946717 -0.002765381
1.020162 0.5071135 0.01065952
2.116392 1.057397 0.01229165
2.126927 1.073771 0.01292921
2.128366 1.090613 0.01246748
2.127676 1.11201 0.01228282
2.127344 1.135879 0.01408084
2.121828 1.141134 0.003064478
2.131264 1.165048 0.008371732
2.122894 1.190081 0.01762121
2.132488 1.207347 0.01750468
2.125812 1.223356 0.01866569
2.121114 1.248955 0.003827153
2.130508 1.258477 0.02148029
2.12747 1.284889 0.01211898
2.135784 1.299705 0.007318503
2.128136 1.333535 0.009974499
2.124118 1.346986 0.01603203
2.124994 1.364911 0.02442302
2.127104 1.390447 0.01641858
2.141216 1.407134 0.02028861
2.130356 1.428048 0.008283116
2.125123 1.453648 0.02143535
2.139493 1.471869 0.01680632
2.154469 -1.480271 0.02725935
2.160119 -1.4506 0.02887588
2.164314 -1.435069 0.03504177
2.170496 -1.406649 0.02374876
2.159598 -1.389519 0.02106388
2.168867 -1.362023 0.02461262
2.164505 -1.347086 0.02857493
2.162856 -1.316921 0.03447085
2.163857 -1.312249 0.03233522
2.158914 -1.289641 0.03105913
2.163117 -1.261751 0.03536889
2.168965 -1.240603 0.0175242
2.163983 -1.229016 0.02781739
2.160518 -1.208111 0.02844807
2.161114 -1.183368 0.02755493
2.158212 -1.16775 0.03004847
2.16258 -1.151003 0.03084737
2.167413 -1.130303 0.02956681
2.16129 -1.11211 0.02367238
2.156605 -1.09052 0.03156622
2.169351 -1.073271 0.02978272
2.164369 -1.059808 0.02219397
2.161586 -1.050348 0.03008459
1.036211 -0.4939494 0.01508152
1.039137 -0.4849268 0.01743848
1.039652 -0.4722739 0.01392364
1.040415 -0.4637561 0.006566116
1.041286 -0.4566698 0.01955815
1.037163 -0.446603 0.01923914
1.049494 -0.4394386 0.01598631
1.043091 -0.4372525 0.01629008
1.041939 -0.429227 0.02112322
1.041756 -0.4130976 0.01858359
1.03323 -0.4085206 0.006509786
1.042017 -0.4134498 0.01418893
1.035661 -0.3882584 0.01836745
1.039473 -0.3818977 0.01847548
1.034531 -0.3792682 0.01638467
1.046921 -0.3720987 0.006372583
1.035645 -0.3604773 0.01425008
1.042163 -0.3594331 0.01116766
1.041434 -0.3371978 0.01398616
1.040052 -0.3282298 0.01697073
1.03822 -0.3293913 0.01186994
1.050459 -0.3064426 0.01100301
1.045752 -0.3140624 0.01001976
1.040478 -0.3086371 0.01744844
1.046564 -0.2892597 0.01669643
1.03766 -0.2846002 0.002019978
1.038461 -0.2775853 0.003938869
1.037197 -0.2640991 0.01460769
1.045149 -0.2565745 0.02344836
1.040995 -0.256988 0.00490429
1.0328 -0.2485211 0.008489949
1.038677 -0.2448816 0.004794477
1.04526 -0.2350297 0.01139215
1.037856 -0.2241801 0.01076737
1.045509 -0.2091777 0.01533704
1.036124 -0.20971 0.01488516
1.033547 -0.2039146 0.01722561
1.048197 -0.1861415 0.01143441
1.042781 -0.1930915 0.01348914
1.044628 -0.1817926 0.004997784
1.041281 -0.1731006 0.008223444
1.041499 -0.1671284 0.008238405
1.038176 -0.1566517 0.01631753
1.051578 -0.150735 0.00907878
1.039271 -0.1494477 0.02585328
1.038084 -0.1367767 0.01464326
1.04009 -0.1286889 0.01242059
1.041252 -0.1121292 0.01768195
1.042979 -0.1216692 0.01207167
1.041239 -0.1065073 0.02104489
1.04246 -0.1023723 0.01147476
1.029787 -0.09407813 0.01192371
1.036117 -0.07981464 0.01108489
1.034233 -0.07963735 0.01833274
1.042375 -0.08524388 0.0039944
1.040207 -0.06718679 0.00921337
1.038078 -0.06165083 0.007713448
1.04293 -0.05991022 0.01530967
1.043552 -0.03920507 0.02042336
1.033884 -0.03156144 0.0230547
1.036178 -0.03593527 0.01024634
1.044355 -0.03141813 0.02459797
1.040248 -0.01495594 0.01893901
1.037096 -0.01149511 0.008720729
1.037753 -0.007977956 0.01928306
1.048294 0.00305548 0.02880332
1.047705 0.008643417 0.01534546
1.049796 0.01917635 0.02075524
1.039777 0.03319747 0.007671186
1.043694 0.02348791 0.01281316
1.035509 0.04676045 0.008107982
1.039852 0.05073198 0.02147709
1.032461 0.05706966 0.005763433
1.036819 0.07401687 0.01119001
1.035053 0.07133064 0.01012703
1.038845 0.07866957 0.007718385
1.043993 0.09147657 0.01597662
1.043913 0.09848055 0.01997374
1.041757 0.1043884 0.01571392
1.047839 0.09835775 0.01187543
1.040758 0.1126308 0.009740935
1.032081 0.1218011 0.01763517
1.050425 0.1371682 0.01314572
1.039903 0.132546 0.02301994
1.041773 0.1436729 0.02169388
1.045057 0.1583289 0.01372449
1.035594 0.1571103 0.008144673
1.045375 0.1601697 0.01088479
1.046761 0.1705779 0.0156864
1.028975 0.1863363 0.02400077
1.043986 0.1928925 0.009122577
1.034422 0.2015223 0.0127656
1.036542 0.2015667 0.0220758
1.03793 0.2026369 0.01283792
1.034442 0.2149972 0.01052756
1.040946 0.2248597 0.01353242
1.048738 0.231616 0.01338443
1.04055 0.240992 0.01929166
1.033509 0.2479124 0.01353935
1.032573 0.2508012 0.006700476
1.044811 0.2589354 0.01394858
1.034628 0.2688832 0.01634515
1.04187 0.2743449 0.01910465
1.040526 0.2796317 0.007077605
1.034101 0.2889251 0.01797441
1.043759 0.2940742 0.01623066
1.038162 0.3074343 0.01794924
1.034791 0.3260369 0.01608891
1.044735 0.3241598 0.02612669
1.037198 0.3335551 0.01831219
1.033572 0.3384774 0.02056728
1.03898 0.3378508 0.01629682
1.038277 0.3626128 0.01230966
1.03833 0.3576412 0.01218513
1.040094 0.3675689 0.004795664
1.036013 0.3824911 0.01320966
1.045318 0.3906131 0.007285081
1.048133 0.3977117 0.02236985
1.040438 0.4049378 0.01757714
1.035688 0.4117835 0.00899857
1.035699 0.4233413 0.003141904
1.044061 0.4287823 0.01438348
1.038046 0.4394594 0.01897704
1.042265 0.4492941 0.00988086
1.045769 0.457016 0.009826688
1.031388 0.4654261 0.006352935
1.028578 0.4718958 0.01133478
1.032056 0.4861619 0.004888634
1.033106 0.4856994 0.01960873
1.041957 0.4927183 0.01279679
2.14617 1.051435 0.02790271
2.152301 1.076068 0.0313344
2.148319 1.08454 0.02981417
2.154681 1.108133 0.0275273
2.151197 1.129115 0.03627149
2.156794 1.146953 0.03408355
2.155656 1.163643 0.02035882
2.156749 1.178934 0.02947973
2.147604 1.199973 0.03082241
2.140673 1.220249 0.0309378
2.149201 1.238648 0.03225109
2.15342 1.261591 0.02428607
2.143452 1.276926 0.03408564
2.151475 1.308976 0.0332815
2.148937 1.319473 0.03048677
2.151324 1.350031 0.03471318
2.145291 1.366341 0.02892252
2.158424 1.384181 0.04040881
2.150437 1.406518 0.02726798
2.157699 1.416721 0.03336216
2.151745 1.449459 0.02321146
2.15988 1.466005 0.02984958
2.163946 1.488614 0.03415848
2.19136 -1.49737 0.04386479
2.182617 -1.467131 0.04484556
2.181892 -1.449719 0.04739526
2.192192 -1.432063 0.03521381
2.193219 -1.409561 0.0461981
2.193127 -1.388993 0.04845826
2.193862 -1.365791 0.04047538
2.191649 -1.3448 0.04413139
2.189119 -1.322581 0.04773611
2.179345 -1.305513 0.05091796
2.191469 -1.288646 0.05017841
2.187631 -1.261337 0.03518124
2.183568 -1.237661 0.04811564
2.192941 -1.214153 0.04391591
2.191688 -1.209167 0.05549827
2.186582 -1.182119 0.04786002
2.19419 -1.156267 0.03173519
2.192954 -1.147627 0.03827879
2.187784 -1.124676 0.05104071
2.190629 -1.104031 0.0474803
2.178284 -1.076739 0.05262133
2.186871 -1.0786 0.04510201
2.18551 -1.051093 0.04112963
1.053323 -0.4952588 0.01982978
1.060805 -0.4956086 0.02289276
1.062194 -0.4832311 0.02616442
1.049355 -0.473929 0.02498584
1.051345 -0.4636071 0.01156071
1.050417 -0.4500834 0.01795946
1.059093 -0.4418473 0.03029524
1.049802 -0.4347584 0.0175859
1.054043 -0.4199025 0.02670395
1.05894 -0.4148339 0.01791306
1.056905 -0.4166946 0.01929245
1.0467 -0.3995304 0.01508927
1.048114 -0.4048828 0.01505738
1.053823 -0.3877701 0.01513938
1.060642 -0.3810202 0.0176804
1.052357 -0.3710411 0.02299599
1.049955 -0.3594184 0.0241761
1.052893 -0.3508281 0.01623349
1.059142 -0.3372654 0.0220927
1.04785 -0.3274472 0.01380352
1.055409 -0.3314831 0.01263932
1.063993 -0.3247633 0.0174054
1.053107 -0.3064554 0.02814262
1.059823 -0.3066567 0.01677716
1.058849 -0.2980492 0.02637401
1.047658 -0.2904836 0.02076755
1.051069 -0.2893507 0.02653629
1.054854 -0.2779085 0.02538053
1.054898 -0.2668304 0.02421858
1.046954 -0.2564076 0.02042653
1.041359 -0.2533245 0.0176083
1.052313 -0.2512039 0.02563745
1.052925 -0.2348488 0.02381682
1.046073 -0.2202325 0.01282612
1.051668 -0.221383 0.0207917
1.054359 -0.2095173 0.02379811
1.054212 -0.2094275 0.01483792
1.05247 -0.191614 0.02429341
1.064711 -0.1790133 0.01369248
1.060675 -0.1824169 0.02076964
1.051853 -0.1744498 0.02016138
1.055962 -0.1704827 0.02672127
1.053498 -0.1615271 0.02461235
1.057097 -0.1554691 0.0220074
1.055027 -0.147976 0.02624427
1.056097 -0.1456668 0.02279993
1.051059 -0.1250678 0.01922356
1.056402 -0.1219093 0.02281655
1.046998 -0.1117374 0.02110908
1.057216 -0.1142478 0.01889951
1.04728 -0.09972041 0.02014847
1.055857 -0.09471775 0.02776358
1.051518 -0.07976849 0.02703938
1.053355 -0.08044127 0.02810729
1.052761 -0.07799674 0.01913447
1.052342 -0.07099755 0.01530852
1.060706 -0.06698368 0.02081421
1.050929 -0.05287092 0.02917078
1.049559 -0.03951835 0.01517437
1.053345 -0.02486965 0.02249886
1.05382 -0.02389161 0.02318543
1.056194 -0.02141814 0.02719542
1.052676 -0.008811695 0.01954636
1.04997 -0.008982119 0.01531089
1.052453 0.002492621 0.02050447
1.051489 0.01536968 0.02457272
1.057281 0.01763467 0.01666092
1.052264 0.008034247 0.02411487
1.053789 0.04158339 0.02068321
1.046074 0.03731396 0.02572672
1.049308 0.0468193 0.02228513
1.047143 0.04389777 0.02401426
1.05195 0.06231251 0.02274338
1.053875 0.07054949 0.01102085
1.043358 0.07691006 0.02017712
1.052709 0.07504086 0.0205819
1.056981 0.08283405 0.01420653
1.04771 0.09190771 0.02072521
1.054781 0.1032033 0.02477665
1.041488 0.0957539 0.01778126
1.052552 0.1143548 0.01582426
1.053488 0.1308779 0.0276018
1.067048 0.1270043 0.02403533
1.053147 0.1331968 0.01834878
1.041769 0.1486074 0.01741466
1.053677 0.1443185 0.02796465
1.064142 0.1623164 0.0213086
1.061167 0.166299 0.02149656
1.044586 0.1746054 0.02042426
1.048957 0.1750828 0.01873221
1.056494 0.1890515 0.01992969
1.043219 0.1957083 0.02258847
1.059301 0.2030349 0.02318274
1.050542 0.2099641 0.02871262
1.052869 0.2164312 0.02676557
1.047123 0.233302 0.01340488
1.057204 0.2391436 0.01419873
1.057547 0.2405638 0.01848374
1.050208 0.2552403 0.02505903
1.057338 0.2565003 0.02281686
1.054201 0.2631019 0.01899258
1.043615 0.2806438 0.0200826
1.057626 0.2845979 0.018844
1.057545 0.2946323 0.01217845
1.051944 0.2962033 0.01704783
1.058327 0.3094642 0.02653656
1.050716 0.3121607 0.01699368
1.050977 0.3218659 0.01835993
1.054526 0.3215934 0.01904342
1.058034 0.3431042 0.03085768
1.049724 0.3419861 0.02083791
1.050903 0.3507402 0.01382828
1.050766 0.3588731 0.01875534
1.057635 0.3624039 0.02173714
1.04356 0.3784705 0.02805393
1.054891 0.3877911 0.02539075
1.057895 0.3950452 0.02554365
1.04911 0.4029682 0.01583085
1.060671 0.4090265 0.02802007
1.049813 0.4208312 0.0179505
1.048942 0.4400054 0.01251744
1.039007 0.4326371 0.02401775
1.050002 0.4364361 0.01600192
1.049061 0.4516387 0.01794395
1.054479 0.4726843 0.02675835
1.055077 0.4687709 0.02156163
1.040833 0.472313 0.02189649
1.052296 0.4967359 0.02358143
1.051222 0.494012 0.01267775
2.182997 1.046259 0.0461349
2.177152 1.057925 0.04265149
2.17503 1.08307 0.04938517
2.175625 1.098003 0.0453667
2.180873 1.126061 0.04523643
2.179497 1.142118 0.04478561
2.176352 1.155273 0.04724059
2.179202 1.165235 0.05042957
2.179928 1.199907 0.03891798
2.183125 1.220151 0.04884706
2.17748 1.243508 0.0428507
2.175409 1.259353 0.03993539
2.181165 1.28185 0.03489234
2.182268 1.299175 0.04485563
2.177764 1.317477 0.04628187
2.182159 1.332054 0.04819435
2.179975 1.362417 0.04089826
2.171965 1.377617 0.0412115
2.170567 1.393859 0.04058179
2.172576 1.430302 0.05190002
2.180928 1.446717 0.04186994
2.180638 1.457785 0.04657839
2.174904 1.478834 0.04632273
2.189098 1.510569 0.04467391
2.217869 -1.510475 0.05379065
2.210177 -1.486103 0.0586561
2.207646 -1.464889 0.06007454
2.212076 -1.448205 0.06017096
2.220302 -1.423645 0.06097194
2.216642 -1.393879 0.05784521
2.215672 -1.376628 0.06139566
2.210657 -1.361753 0.05883485
2.218537 -1.346377 0.05925661
2.219048 -1.326117 0.0601839
2.215454 -1.294457 0.06520868
2.219583 -1.28499 0.06681473
2.207328 -1.251337 0.0617297
2.212812 -1.239181 0.06318564
2.217643 -1.212571 0.0633117
2.205166 -1.213299 0.05547939
2.225432 -1.174449 0.06224465
2.216997 -1.147041 0.06346977
2.214079 -1.1356 0.05550536
2.209815 -1.125441 0.05949064
2.218527 -1.103626 0.06932333
2.212635 -1.083961 0.0622866
2.216295 -1.069787 0.05505429
2.214631 -1.046287 0.05936615
1.06346 -0.4948712 0.02368786
1.063821 -0.4859889 0.03223553
1.069117 -0.4769351 0.03369775
1.068075 -0.4681017 0.03530174
1.074827 -0.4640747 0.03599989
1.065192 -0.4519266 0.03501121
1.068203 -0.4415099 0.0268874
1.062979 -0.4356023 0.03195855
1.056553 -0.4300518 0.032533
1.068754 -0.4104328 0.0297874
1.068377 -0.4070871 0.03570533
1.068291 -0.4002156 0.03102831
1.05916 -0.3899781 0.02721151
1.062134 -0.3823244 0.02746399
1.061831 -0.3800671 0.03147865
1.071997 -0.3663319 0.03154151
1.074322 -0.3541943 0.02501251
1.06816 -0.3560907 0.0248057
1.066577 -0.3447864 0.02726449
1.074877 -0.3309736 0.03032239
1.064255 -0.3252893 0.03934941
1.076078 -0.3201038 0.02637658
1.075546 -0.3190574 0.02702661
1.075618 -0.295443 0.03009029
1.07126 -0.2924377 0.01084012
1.062708 -0.2820794 0.02599109
1.068177 -0.2744746 0.03745802
1.077928 -0.264901 0.02834226
1.063016 -0.2623979 0.02729728
1.061504 -0.2572892 0.02835622
1.060697 -0.2456108 0.033562
1.067321 -0.2328908 0.0384094
1.062307 -0.226683 0.034042
1.062543 -0.2264953 0.02547524
1.066831 -0.216954 0.02211588
1.067461 -0.2196877 0.03939245
1.06418 -0.1940305 0.03727125
1.066216 -0.1890688 0.0326648
1.070799 -0.1888772 0.02619536
1.063365 -0.1736896 0.02392253
1.0651 -0.1613947 0.02662811
1.068348 -0.1685499 0.02840195
1.069791 -0.1576526 0.03045282
1.066896 -0.1479889 0.02480346
1.062414 -0.1350648 0.03359761
1.053909 -0.1295385 0.03081825
1.068982 -0.1246318 0.02249143
1.064323 -0.121846 0.03209594
1.066462 -0.1079389 0.02688187
1.067396 -0.1048494 0.03096191
1.067762 -0.09677193 0.03309998
1.064713 -0.08265808 0.02726609
1.060959 -0.07733729 0.02918235
1.069389 -0.07357885 0.02490948
1.062407 -0.06392278 0.02883918
1.065437 -0.06550095 0.02847622
1.06722 -0.05273929 0.03093888
1.061941 -0.04741365 0.02813698
1.069306 -0.03573825 0.02520857
1.067765 -0.03325063 0.03375844
1.064898 -0.02161062 0.03001489
1.068804 -0.01734419 0.02512698
1.061315 -0.01441108 0.02804074
1.071633 0.004568111 0.03214287
1.072665 0.003172512 0.03242753
1.068918 0.01849236 0.03565138
1.070105 0.02423423 0.02789182
1.06225 0.03563694 0.02926098
1.058095 0.03241888 0.03337232
1.059543 0.04412594 0.03609598
1.049328 0.05399628 0.02961287
1.064226 0.05102311 0.03108438
1.067729 0.07179439 0.03508874
1.071623 0.07025542 0.02899436
1.069169 0.07823066 0.03750321
1.07278 0.09237234 0.02854403
1.061216 0.09561605 0.03519322
1.061481 0.1082846 0.03053727
1.066051 0.1123714 0.03210607
1.076436 0.117516 0.03676574
1.071503 0.128538 0.0203479
1.063163 0.1333867 0.02917973
1.061382 0.1445549 0.02948189
1.067227 0.1506542 0.03474933
1.064287 0.161835 0.03036644
1.058742 0.158985 0.02558112
1.065282 0.1735335 0.02321271
1.065076 0.1793603 0.03266285
1.072947 0.1937536 0.02120369
1.066101 0.182601 0.03690046
1.07434 0.2043487 0.02652686
1.067357 0.213313 0.03237969
1.065732 0.2294755 0.02564727
1.055353 0.221588 0.02826974
1.058309 0.23407 0.03415919
1.067737 0.2375052 0.03776631
1.056348 0.2437059 0.02652952
1.075097 0.2467986 0.02530053
1.075553 0.2647823 0.03205693
1.072082 0.2602351 0.01954803
1.065971 0.2823837 0.03497382
1.073873 0.2850981 0.03098129
1.061497 0.3029749 0.03207802
1.057358 0.2874494 0.02012645
1.068427 0.3082977 0.02848067
1.066318 0.3105093 0.03653741
1.058027 0.3231959 0.03075572
1.061415 0.3266731 0.02931025
1.053414 0.3411612 0.03370635
1.066346 0.3464679 0.03568599
1.060366 0.3496251 0.0224804
1.066502 0.370774 0.02553169
1.071422 0.3700561 0.03164701
1.069578 0.3768816 0.02863989
1.062427 0.3927918 0.01832869
1.070433 0.39642 0.03304841
1.073818 0.4002794 0.02158844
1.061504 0.4112272 0.02548522
1.074636 0.4259269 0.02883191
1.066739 0.4292228 0.0286906
1.061377 0.4463617 0.029194
1.066314 0.4473838 0.0265791
1.065996 0.4547396 0.03269616
1.060287 0.462872 0.03632513
1.060534 0.466226 0.03169501
1.056815 0.4878486 0.02505655
1.058848 0.499774 0.03513441
1.067138 0.4999923 0.03682774
2.211756 1.052386 0.06061113
2.205975 1.071075 0.06642792
2.205462 1.110583 0.05642271
2.206204 1.117872 0.05679926
2.21327 1.134754 0.07008621
2.21087 1.161123 0.05982364
2.2137 1.181857 0.05932089
2.207607 1.193448 0.05383275
2.208445 1.208572 0.06781491
2.196606 1.233685 0.0670363
2.205605 1.250769 0.06479333
2.208034 1.271065 0.05714569
2.204212 1.296342 0.06303032
2.208029 1.317214 0.05931723
2.205886 1.334226 0.05687864
2.20855 1.355033 0.06624167
2.207408 1.371128 0.06403027
2.205498 1.396121 0.06374189
2.2042 1.411282 0.05812601
2.212909 1.44117 0.06752183
2.201293 1.458435 0.06258424
2.208851 1.490556 0.05661352
2.199774 1.508468 0.06947036
2.210575 1.523301 0.05421219
2.246932 -1.534759 0.07606323
2.250372 -1.515351 0.07415529
2.239366 -1.487995 0.07220529
2.241441 -1.463442 0.07894357
2.243119 -1.442317 0.07650568
2.240822 -1.425791 0.066173
2.233029 -1.399536 0.07712174
2.236674 -1.375488 0.07716127
2.232462 -1.360809 0.07313335
2.248686 -1.332917 0.08174529
2.24233 -1.320803 0.08471383
2.251496 -1.303419 0.07582615
2.251375 -1.277181 0.07985206
2.250663 -1.246954 0.07536583
2.245629 -1.231029 0.08029084
2.241131 -1.210595 0.07709201
2.247193 -1.187191 0.08215398
2.246056 -1.172844 0.0790261
2.246567 -1.162942 0.07540154
2.248217 -1.136147 0.06858524
2.24458 -1.108655 0.06649428
2.244358 -1.093129 0.07737242
2.241782 -1.073681 0.07507084
2.249212 -1.062332 0.07552736
2.237285 -1.047079 0.07554191
1.084966 -0.4902633 0.04129594
1.082832 -0.4769123 0.03274265
1.074947 -0.4713503 0.03765104
1.080172 -0.4672906 0.03795966
1.079622 -0.4603229 0.04252822
1.071617 -0.4491462 0.03721148
1.080883 -0.4388975 0.03843408
1.073378 -0.4295945 0.03168175
1.081128 -0.4299654 0.04069607
1.085301 -0.4275954 0.03353911
1.072376 -0.4020405 0.04247044
1.077987 -0.3946842 0.03056292
1.078192 -0.380913 0.03498452
1.077065 -0.3815711 0.03443611
1.092335 -0.3781484 0.04640867
1.080028 -0.3592328 0.0389194
1.080227 -0.3567059 0.03748373
1.078409 -0.3569722 0.03579677
1.083132 -0.3339659 0.03816102
1.085853 -0.328069 0.02899122
1.081812 -0.3285466 0.05142256
1.079461 -0.3050329 0.03308241
1.082204 -0.3082917 0.03572597
1.084255 -0.302253 0.0334531
1.076629 -0.2856724 0.03676021
1.0886 -0.2742708 0.03206501
1.075026 -0.2703239 0.03817957
1.078387 -0.2621005 0.03438003
1.077448 -0.2488924 0.04194054
1.079427 -0.2520864 0.02970711
1.077575 -0.2359135 0.03493207
1.072607 -0.2303311 0.03581515
1.078441 -0.2222047 0.02903413
1.08239 -0.2205474 0.03702295
1.085874 -0.2176689 0.03477002
1.087032 -0.1956377 0.03408256
1.083239 -0.1945856 0.03684006
1.091204 -0.1873262 0.03469402
1.077223 -0.1837044 0.04469277
1.088618 -0.1646651 0.03797736
1.086936 -0.160042 0.04442877
1.068985 -0.1537182 0.04984478
1.084796 -0.1486993 0.03563357
1.083638 -0.1393258 0.04339001
1.07915 -0.1359939 0.04437548
1.081854 -0.1347922 0.0457739
1.079957 -0.1181933 0.0263917
1.075934 -0.1062764 0.03660686
1.081151 -0.1073369 0.02863832
1.084197 -0.09183045 0.03644308
1.088407 -0.08776347 0.03284926
1.078865 -0.08932927 0.03723522
1.084957 -0.07996295 0.03337969
1.084295 -0.06848917 0.03328118
1.083552 -0.05586717 0.02908572
1.077404 -0.05283308 0.03975989
1.07717 -0.03824216 0.0324344
1.080082 -0.0307516 0.02691174
1.075995 -0.03201033 0.04033266
1.079475 -0.02785316 0.04168456
1.078089 -0.008334242 0.02998424
1.07153 -0.007895461 0.03525676
1.076743 -0.006828014 0.04257604
1.075977 0.004512415 0.04005153
1.083823 0.01536297 0.04186657
1.072381 0.02228876 0.04075661
1.073152 0.03144818 0.04041936
1.070869 0.03506301 0.0345368
1.076281 0.04779151 0.03427992
1.0765 0.05556435 0.03137585
1.078745 0.05317467 0.03256358
1.076962 0.06748478 0.04082263
1.080499 0.07385617 0.02578318
1.08719 0.08147569 0.04569184
1.076885 0.08922669 0.03309637
1.078016 0.09617238 0.04214284
1.080488 0.1083224 0.03000275
1.079755 0.1071866 0.03329159
1.076735 0.1160199 0.03708922
1.08424 0.1311718 0.02631157
1.080961 0.1318921 0.03232316
1.07396 0.148268 0.04423712
1.081652 0.1453522 0.03851459
1.090877 0.162272 0.04252192
1.077876 0.1698109 0.02923743
1.078236 0.1711518 0.04329467
1.086527 0.1831319 0.03665364
1.077682 0.1882946 0.03812896
1.076674 0.1959858 0.03671129
1.078196 0.1984122 0.03331763
1.074423 0.2097079 0.03305579
1.089779 0.220597 0.03869496
1.077098 0.220024 0.04328732
1.085154 0.233728 0.04196076
1.078248 0.2371479 0.03670797
1.080769 0.2505313 0.04080333
1.08055 0.2539122 0.04924807
1.076807 0.2550844 0.03114444
1.080349 0.2701698 0.03375529
1.071885 0.2804485 0.04029014
1.07654 0.2920623 0.03070105
1.067346 0.2950483 0.03697144
1.077246 0.3064814 0.04053246
1.072179 0.3232119 0.04241326
1.075962 0.3283927 0.03468876
1.077246 0.3342552 0.04716058
1.084812 0.3394713 0.0294051
1.080312 0.3446579 0.04569314
1.08137 0.3514395 0.03966365
1.078897 0.3655124 0.034856
1.074126 0.3626909 0.04682916
1.06772 0.3861502 0.03666976
1.081651 0.3925884 0.03638234
1.083145 0.3899168 0.0423779
1.080984 0.3969357 0.03706819
1.076744 0.4015116 0.03656
1.07918 0.4248579 0.03446755
1.082301 0.4318882 0.03676878
1.081701 0.4463326 0.03265515
1.079066 0.4467456 0.03553522
1.08035 0.450078 0.03028177
1.071445 0.4571015 0.03903939
1.084942 0.4723333 0.04128282
1.076111 0.4815836 0.02812584
1.075443 0.4934031 0.04471257
1.081821 0.4924684 0.04365483
2.23671 1.04703 0.07328662
2.231043 1.074278 0.07628724
2.234821 1.0835 0.08355696
2.233011 1.107843 0.06782923
2.235364 1.129847 0.07906158
2.238988 1.147782 0.07635399
2.226034 1.166411 0.08074476
2.225923 1.176343 0.07751977
2.242514 1.204901 0.06867394
2.242048 1.238873 0.07434028
2.230469 1.258439 0.07261764
2.233131 1.274944 0.07325128
2.232441 1.295858 0.06885573
2.236905 1.30426 0.0724417
2.233814 1.327572 0.07221999
2.224815 1.346436 0.0795988
2.231996 1.361676 0.07911398
2.229903 1.397739 0.07296547
2.233737 1.410488 0.08198788
2.231003 1.43553 0.08052906
2.233675 1.461315 0.0760906
2.229411 1.47306 0.0755372
2.231118 1.503863 0.08129393
2.229778 1.521386 0.07114375
2.239921 1.538731 0.07496684
2.270441 -1.547834 0.0975497
2.273759 -1.52802 0.09050622
2.276116 -1.504191 0.08716306
2.274621 -1.477916 0.09429178
2.277709 -1.452617 0.09569761
2.269833 -1.443455 0.1033034
2.273643 -1.416641 0.08502724
2.276081 -1.408533 0.08913638
2.271689 -1.370705 0.08895046
2.271579 -1.350865 0.0923206
2.275347 -1.337831 0.09771982
2.271204 -1.30574 0.09517674
2.271269 -1.291498 0.08912991
2.272369 -1.268134 0.09880805
2.276141 -1.243237 0.09341454
2.25964 -1.23189 0.09357647
2.266659 -1.207003 0.09299768
2.283253 -1.184247 0.09030423
2.272377 -1.171532 0.08842844
2.270703 -1.148554 0.09194033
2.270538 -1.124485 0.08589077
2.272362 -1.119047 0.08880899
2.264226 -1.089624 0.09008495
2.260682 -1.065634 0.1021138
2.274389 -1.051991 0.09520496
2.283774 -1.03419 0.09715356
1.097222 -0.4825193 0.04507916
1.088615 -0.4835581 0.04770871
1.102856 -0.4684937 0.04371276
1.0948 -0.4572091 0.04333809
1.097973 -0.4478763 0.04532812
1.091006 -0.4401858 0.04177355
1.10086 -0.4355241 0.04252568
1.089559 -0.4296921 0.04569712
1.088919 -0.4188783 0.04370027
1.09511 -0.4104753 0.04272265
1.095557 -0.3934151 0.03760075
1.095299 -0.3912727 0.03607149
1.090593 -0.3870111 0.04666824
1.096196 -0.369154 0.04630678
1.081575 -0.3627929 0.04718886
1.095216 -0.3578274 0.04025771
1.102339 -0.347616 0.0391722
1.104062 -0.3417492 0.03694145
1.095438 -0.3385038 0.04667629
1.096818 -0.3198547 0.04288269
1.097657 -0.322534 0.05066907
1.092973 -0.3089798 0.04221763
1.09767 -0.3035615 0.04127764
1.099265 -0.2888223 0.04957283
1.091904 -0.2875541 0.04795391
1.101484 -0.275096 0.04048096
1.095573 -0.2716739 0.04491928
1.086178 -0.2572741 0.04325094
1.099264 -0.2455829 0.04209365
1.086899 -0.2427972 0.04667185
1.092492 -0.2344423 0.04408586
1.100583 -0.2290289 0.04972813
1.093736 -0.2228001 0.04709276
1.10045 -0.2151993 0.04525812
1.094996 -0.2004584 0.04841986
1.096269 -0.201208 0.04205241
1.082046 -0.1891239 0.03784128
1.099351 -0.1835807 0.03537054
1.097782 -0.1756833 0.05738663
1.100951 -0.1623327 0.04740784
1.100295 -0.160332 0.04059045
1.088389 -0.1577053 0.04624044
1.085299 -0.1448922 0.04744652
1.086116 -0.136113 0.05098805
1.095669 -0.1334091 0.04892063
1.098741 -0.1120789 0.04422109
1.089763 -0.1113835 0.04613696
1.098393 -0.1075944 0.04960397
1.095745 -0.09097786 0.04330478
1.097502 -0.09167208 0.04016314
1.089982 -0.08397467 0.05106751
1.089205 -0.0775694 0.0422186
1.087614 -0.06766345 0.05371506
1.094603 -0.06754083 0.04690151
1.095358 -0.05005038 0.04686173
1.090111 -0.04235019 0.05180522
1.087784 -0.03657709 0.04296588
1.096565 -0.02816565 0.03541144
1.096938 -0.01958321 0.04676611
1.094124 -0.007901438 0.03661075
1.094322 -0.01228581 0.05114978
1.092792 0.003772299 0.04927499
1.097853 0.00882282 0.05300294
1.102304 0.01233158 0.03839095
1.092754 0.02196082 0.04284965
1.095895 0.02657255 0.03896146
1.089071 0.03562794 0.03915591
1.098132 0.04561651 0.05070823
1.095505 0.0509925 0.04959914
1.090829 0.05391765 0.04095288
1.10146 0.06722231 0.04965578
1.092625 0.07269222 0.04710598
1.090344 0.08149335 0.04057242
1.092648 0.08441635 0.04209121
1.086 0.100262 0.03969258
1.091803 0.1069575 0.05586537
1.091942 0.114536 0.04043572
1.098821 0.1177276 0.04265901
1.089034 0.1288093 0.04530837
1.087959 0.1349906 0.04218557
1.088576 0.1425813 0.03605101
1.088951 0.1637865 0.0468266
1.094093 0.154608 0.03977923
1.092229 0.1617112 0.04518956
1.087034 0.1692415 0.04562487
1.097446 0.1837877 0.05408423
1.094729 0.182095 0.04205353
1.08511 0.1941181 0.04996125
1.086456 0.2036302 0.04439867
1.098859 0.2095904 0.04678441
1.086745 0.2266849 0.04787835
1.091155 0.2324605 0.04392932
1.099177 0.241815 0.04618024
1.099876 0.2462062 0.05827968
1.087165 0.2450157 0.04868158
1.09253 0.2569336 0.04405167
1.091037 0.2688826 0.03916197
1.090503 0.2711259 0.03750143
1.093941 0.2932916 0.04439878
1.092069 0.2945597 0.0394378
1.091042 0.2994486 0.04757844
1.084912 0.3065721 0.04275256
1.088469 0.3143197 0.03808007
1.096301 0.3274174 0.0455367
1.0959 0.3298817 0.0429329
1.090473 0.3423801 0.04383522
1.090642 0.3485862 0.04222642
1.088936 0.360948 0.04562756
1.092168 0.3638916 0.03733315
1.093246 0.3741565 0.03913971
1.080877 0.3848371 0.05803209
1.095265 0.3831628 0.04127033
1.092483 0.3873076 0.05280825
1.09033 0.4119383 0.04998688
1.087902 0.4181089 0.03960329
1.08567 0.4312965 0.04129403
1.084876 0.4278488 0.05186931
1.091991 0.4545691 0.05131221
1.086728 0.4539424 0.0456866
1.085522 0.4650527 0.04287245
1.090573 0.4676644 0.04910542
1.084734 0.4750694 0.04954554
1.087136 0.4851296 0.0457325
1.099989 0.50427 0.04278663
2.265508 1.046145 0.09287332
2.264496 1.068685 0.08963889
2.270379 1.09751 0.09414511
2.265123 1.100921 0.08885576
2.261939 1.126516 0.0917705
2.259742 1.146475 0.1026796
2.262981 1.167796 0.08728176
2.26841 1.190272 0.0894676
2.273416 1.207497 0.09295777
2.258487 1.225402 0.08742438
2.255614 1.235815 0.1046579
2.273404 1.260028 0.09917468
2.264015 1.280345 0.1031153
2.266707 1.311958 0.09064607
2.257231 1.324047 0.09610156
2.261088 1.342769 0.09400248
2.262469 1.382241 0.09978791
2.270895 1.39012 0.09104319
2.263353 1.409211 0.0932059
2.261991 1.442114 0.09385215
2.251966 1.453352 0.08847909
2.259161 1.46945 0.09646384
2.264748 1.495517 0.1002408
2.257498 1.520376 0.08714344
2.259985 1.534724 0.08293125
2.266763 1.554327 0.1019829
2.300792 -1.56878 0.1135775
2.305276 -1.547074 0.1046195
2.302238 -1.521816 0.1060629
2.300433 -1.501004 0.1151872
2.303284 -1.486289 0.110093
2.29344 -1.460178 0.1077082
2.296196 -1.436452 0.108759
2.304378 -1.418746 0.1082771
2.307905 -1.39839 0.1110757
2.308193 -1.362286 0.1146595
2.297678 -1.344464 0.1037379
2.294097 -1.329457 0.1036835
2.302711 -1.30988 0.1106164
2.297904 -1.284807 0.115704
2.300748 -1.256594 0.1033767
2.301029 -1.231975 0.1154602
2.302682 -1.225426 0.09625064
2.299945 -1.204694 0.1128666
2.301031 -1.182057 0.114441
2.301856 -1.169937 0.1063878
2.297841 -1.139724 0.1106568
2.29812 -1.130224 0.1116489
2.295255 -1.102738 0.109617
2.297763 -1.085007 0.1170155
2.299534 -1.066753 0.1072729
2.291502 -1.040035 0.1035149
1.107792 -0.4973421 0.05447565
1.1015 -0.4824716 0.04716255
1.1148 -0.4766261 0.05937132
1.110319 -0.4713039 0.05790685
1.110893 -0.4615934 0.0517081
1.108159 -0.4426223 0.05200593
1.100406 -0.4419674 0.05766182
1.112387 -0.4350906 0.055834
1.116319 -0.4210936 0.05689974
1.104042 -0.4097165 0.05475225
1.106769 -0.4009129 0.05545574
1.104827 -0.4050146 0.04631301
1.104231 -0.3884275 0.06011641
1.106122 -0.3781626 0.0488502
1.100733 -0.3636735 0.06067869
1.113311 -0.3629057 0.05648487
1.113323 -0.3499485 0.05444061
1.104286 -0.3451473 0.05126467
1.111645 -0.333279 0.06534355
1.106764 -0.3373571 0.04819749
1.107668 -0.3337911 0.05470749
1.111425 -0.3126031 0.05104839
1.111764 -0.3062794 0.04666558
1.106715 -0.3026946 0.05472375
1.10475 -0.2899859 0.04861206
1.109257 -0.2796421 0.0544591
1.105726 -0.2663325 0.04105813
1.104173 -0.2722936 0.05698064
1.106182 -0.2475662 0.04596496
1.105541 -0.2536892 0.05283765
1.101602 -0.2407087 0.05389566
1.102599 -0.2281572 0.05585071
1.109605 -0.2237001 0.05277089
1.103237 -0.2154403 0.05994086
1.112129 -0.2156204 0.04841912
1.099788 -0.2042585 0.05276857
1.102197 -0.1948345 0.05779224
1.104971 -0.1833423 0.05420881
1.105781 -0.1730962 0.06566197
1.105045 -0.1698364 0.04858782
1.108471 -0.1572511 0.05374806
1.111226 -0.1541611 0.05624625
1.107159 -0.1491957 0.04462607
1.105034 -0.1480092 0.06734333
1.104204 -0.1290426 0.05730786
1.10622 -0.1218427 0.05067793
1.108058 -0.1120317 0.05614346
1.105752 -0.1102825 0.05445081
1.110459 -0.1049615 0.06294453
1.101689 -0.08867241 0.0524846
1.102123 -0.08458544 0.05764911
1.110752 -0.07706905 0.04296936
1.110064 -0.07714536 0.06414863
1.102251 -0.0656535 0.04982049
1.111456 -0.05923517 0.04794191
1.103997 -0.0458523 0.05825842
1.107106 -0.03006265 0.05666876
1.109811 -0.02129621 0.05620088
1.100601 -0.02568796 0.05390234
1.109759 -0.008786711 0.05002968
1.108406 -0.006243826 0.0480982
1.104962 -0.003548572 0.05669898
1.106692 -0.0007701094 0.05306612
1.114899 0.0188696 0.05059668
1.109719 0.02217537 0.04639385
1.101391 0.03625094 0.05773207
1.110222 0.03049583 0.05954265
1.107446 0.04147845 0.04649774
1.105925 0.04958573 0.0530704
1.111185 0.0565852 0.04069996
1.101528 0.07827536 0.04836982
1.106327 0.07579967 0.05153365
1.106377 0.08362079 0.0401961
1.108747 0.09371493 0.05322952
1.099376 0.09989303 0.05186064
1.107383 0.1064772 0.05509371
1.101984 0.1043065 0.05014129
1.116058 0.1195247 0.05262952
1.108469 0.1308319 0.05817397
1.112761 0.1399678 0.04712261
1.090389 0.1456932 0.0509337
1.112352 0.1591096 0.05090535
1.109252 0.1605177 0.06405701
1.112158 0.165059 0.05875993
1.106983 0.177858 0.06333033
1.095986 0.1791876 0.05007642
1.103551 0.1904591 0.05632235
1.094494 0.1927698 0.05556197
1.106826 0.2172657 0.05229459
1.109246 0.2224952 0.05586413
1.102425 0.2138184 0.05669601
1.104391 0.232033 0.0555714
1.104895 0.2389562 0.04960269
1.111693 0.2503092 0.04384793
1.105919 0.2517849 0.05414697
1.107539 0.2616044 0.05583323
1.113492 0.2776417 0.05931824
1.105178 0.2737948 0.04726688
1.10389 0.2875543 0.04944862
1.101747 0.3027625 0.04950727
1.109413 0.3069226 0.05637936
1.107425 0.3152968 0.05732809
1.110192 0.326897 0.06060894
1.10301 0.3241553 0.05865271
1.106828 0.3360483 0.05604523
1.10378 0.344793 0.0587498
1.10323 0.3554335 0.05650432
1.10863 0.368053 0.06267191
1.112257 0.3669407 0.04940518
1.102386 0.3835881 0.05938119
1.105732 0.3844539 0.05125764
1.101294 0.3929887 0.04812787
1.10004 0.4057262 0.05370381
1.101364 0.4092725 0.04484302
1.101828 0.429539 0.06057555
1.099008 0.4290485 0.0534334
1.108639 0.4401268 0.05043795
1.107614 0.4530916 0.05463732
1.105663 0.4590511 0.05125385
1.0991 0.4652324 0.05781041
1.116725 0.4847485 0.04835546
1.104065 0.4843543 0.05516351
1.107439 0.4926508 0.05833719
2.292268 1.052981 0.1110373
2.283095 1.060704 0.1162118
2.287379 1.070902 0.115005
2.292717 1.097917 0.1038152
2.289571 1.124175 0.1105055
2.293488 1.134269 0.1067034
2.290927 1.159461 0.1154439
2.287744 1.178825 0.1110942
