# .PCD v.7 - Point Cloud Data file format
FIELDS x y z
SIZE 4 4 4
TYPE F F F
COUNT 1 1 1
WIDTH 1530
HEIGHT 1
VIEWPOINT 0 0 0 1 0 0 0
POINTS 1530
DATA ascii
0.7500466 -0.2349906 -0.168734
0.7426299 -0.234754 -0.1642621
0.7460245 -0.2324206 -0.1649753
0.739834 -0.219342 -0.1560708
0.7395754 -0.2131627 -0.1585245
0.7389838 -0.2022861 -0.1540834
0.7500948 -0.2035077 -0.1571276
0.7401427 -0.1942263 -0.1640986
0.7422598 -0.1854374 -0.1619903
0.7440763 -0.1833155 -0.1563492
0.7395234 -0.176211 -0.1571259
0.7395175 -0.185661 -0.1547662
0.7439743 -0.1779146 -0.1586364
0.7466797 -0.1638596 -0.1556002
0.7460307 -0.1545494 -0.1670204
0.7450016 -0.1456617 -0.1572298
0.7343799 -0.1462175 -0.1627366
0.7388383 -0.1421573 -0.1635439
0.7407992 -0.1371325 -0.156234
0.7404667 -0.1311824 -0.1646468
0.7508457 -0.1271504 -0.1614234
0.7421769 -0.1263375 -0.1528897
0.7358635 -0.1110527 -0.1598631
0.7487183 -0.1115188 -0.1570162
0.7492262 -0.09719459 -0.1527424
0.741909 -0.09695145 -0.1617543
0.744797 -0.08915932 -0.1601947
0.7400143 -0.08364348 -0.1576645
0.7438352 -0.08092678 -0.158224
0.7439283 -0.07869148 -0.158592
0.7400722 -0.06804153 -0.1532964
0.7317744 -0.07147583 -0.1583241
0.7419645 -0.0512787 -0.1627913
0.7358232 -0.0416524 -0.1560898
0.7423502 -0.05615631 -0.1565124
0.7375265 -0.03965263 -0.1598623
0.7424915 -0.04398361 -0.1655835
0.734573 -0.03381417 -0.155496
0.744031 -0.03852878 -0.1556465
0.7379102 -0.0284562 -0.1513476
0.7502056 -0.02616484 -0.1573931
0.7443995 -0.01924773 -0.1623502
0.7397085 -0.004718767 -0.1623158
0.7513834 -0.003113101 -0.1618421
0.7469709 0.001230896 -0.1683132
0.7426759 0.01112776 -0.1611485
0.7362662 0.01388754 -0.1603431
0.7417937 0.02392134 -0.1669028
0.7439905 0.01950161 -0.15629
0.7444571 0.02793211 -0.1610976
0.7445946 0.02489698 -0.1561248
0.7450934 0.03470716 -0.1643986
0.7425052 0.03932329 -0.1599532
0.7446645 0.0445516 -0.164645
0.7415997 0.05096456 -0.1647401
0.737405 0.05888961 -0.1543714
0.7354116 0.06200805 -0.1582853
0.7268798 0.06365275 -0.1650193
0.7303302 0.06806209 -0.1598759
0.7295664 0.08745092 -0.1561542
0.7394502 0.0803383 -0.1562691
0.7454824 0.08643389 -0.1606439
0.7333612 0.0955212 -0.156458
0.7401451 0.09826358 -0.1630106
0.7396868 0.1052026 -0.156285
0.7384535 0.1084406 -0.1465677
0.7400602 0.1142212 -0.1512527
0.7446734 0.110175 -0.1633342
0.7397252 0.1230812 -0.1581451
0.7418631 0.1343834 -0.155456
0.7500385 0.1318979 -0.158835
0.7462217 0.1375017 -0.1570743
0.7448177 0.1365798 -0.163013
0.7404678 0.166126 -0.169336
0.746075 0.1560003 -0.1684307
0.7390206 0.1614365 -0.1582679
0.7348742 0.1730479 -0.1612262
0.7444859 0.1753524 -0.1661129
0.7334937 0.1738771 -0.152098
0.7398654 0.1912791 -0.1554663
0.7493182 0.1956111 -0.1667702
0.7377799 0.1957402 -0.1601914
0.73434 0.1967781 -0.155485
0.7501304 0.2072193 -0.1568145
0.7521763 0.2060853 -0.1559191
0.748372 0.2248873 -0.1573747
0.7360704 0.2259455 -0.153045
0.7392304 0.2208904 -0.1612856
0.7440369 0.2361397 -0.1629277
0.744898 0.2386821 -0.160033
0.7501571 0.2479045 -0.1598401
0.736232 0.2596737 -0.1587308
0.7419227 0.2483524 -0.1628418
0.7436991 0.2490083 -0.1613931
0.7367591 0.2692795 -0.1549718
0.7466442 0.2721449 -0.1703952
0.7413189 0.2800168 -0.151951
0.745393 0.2960177 -0.1530052
0.74434 0.2943305 -0.1604121
0.7395993 0.2991275 -0.1647594
0.7467903 0.3072327 -0.1479893
0.7434574 0.3117269 -0.157855
0.7367679 0.3152995 -0.1627777
0.73633 0.3224392 -0.1518156
0.7352138 0.3355254 -0.1551489
0.7364864 0.3377036 -0.1574923
0.7476408 0.3492599 -0.1636347
0.7335666 0.3402294 -0.1573964
0.7362955 0.3582934 -0.1595294
0.738757 0.3678973 -0.1527276
0.7391407 0.3676228 -0.164829
0.734589 0.3814067 -0.1608167
0.7334096 0.3844283 -0.1566658
0.7363882 0.3871045 -0.1606269
0.74307 0.388354 -0.163457
0.7347298 0.3993098 -0.1729802
0.726559 0.412316 -0.165123
0.7412136 0.41419 -0.1591611
0.7433632 0.4247894 -0.1612719
0.7391658 0.4365791 -0.1474755
0.7407835 0.438548 -0.1668343
0.7365317 0.4381764 -0.1658926
0.7431046 0.4495042 -0.1630597
0.7319797 0.4555831 -0.1589203
0.7397486 0.4694343 -0.1559425
0.7341464 0.4714709 -0.1571157
0.7418318 0.4792908 -0.1582945
0.7455173 0.4864438 -0.1596668
0.7410324 0.4923095 -0.1613199
1.537376 1.037064 -0.3377512
1.536258 1.046653 -0.3305086
1.537494 1.071647 -0.3338667
1.533124 1.077372 -0.3343863
1.552063 -1.08385 -0.3280714
1.548039 -1.068367 -0.3255047
1.557111 -1.051619 -0.3213982
1.555621 -1.038247 -0.3211002
0.7545173 -0.4916481 -0.1510646
0.7462645 -0.4816239 -0.152072
0.7599661 -0.471822 -0.1498858
0.756241 -0.4597387 -0.1542255
0.7580988 -0.4701369 -0.1522376
0.7487143 -0.4434845 -0.1475895
0.7599492 -0.4487525 -0.1551156
0.7586628 -0.4288983 -0.1657386
0.7519698 -0.431993 -0.1586352
0.7471045 -0.4199046 -0.1585524
0.743017 -0.4223167 -0.1532349
0.7489768 -0.4098232 -0.1460794
0.7500093 -0.4052542 -0.1485291
0.7454499 -0.3927214 -0.1602524
0.745173 -0.3971322 -0.1521731
0.7580748 -0.3867147 -0.164361
0.7480394 -0.3823295 -0.147827
0.7549497 -0.368708 -0.149549
0.7424321 -0.3790259 -0.1621772
0.7528647 -0.3636782 -0.1641885
0.7467605 -0.3536124 -0.1579297
0.7475327 -0.3466147 -0.1494267
0.7448614 -0.3338515 -0.1543729
0.7474545 -0.3326072 -0.1589696
0.7427946 -0.3306632 -0.1648593
0.7457589 -0.3179167 -0.1515837
0.7564676 -0.3143626 -0.1573733
0.7492905 -0.3076923 -0.1551347
0.7582101 -0.3023545 -0.1544979
0.7471347 -0.306944 -0.1482635
0.7502806 -0.2916871 -0.1591528
0.7475065 -0.2926078 -0.1549812
0.7516832 -0.281211 -0.16442
0.7483647 -0.2749972 -0.1514331
0.7500896 -0.2754099 -0.1619663
0.7445518 -0.260155 -0.1653435
0.7510042 -0.2636102 -0.1565736
0.7544159 -0.2374941 -0.1543234
0.7517965 -0.2379185 -0.1600744
0.7529284 -0.2357656 -0.1508811
0.755115 -0.2286492 -0.1537057
0.7571505 -0.2180904 -0.1571498
0.7496029 -0.2175958 -0.1592249
0.743466 -0.2075976 -0.1516888
0.7449855 -0.2086507 -0.1559806
0.7451797 -0.2072815 -0.1642366
0.7463689 -0.2029452 -0.1565021
0.7560502 -0.1869792 -0.1625969
0.7483945 -0.183966 -0.1595237
0.7370282 -0.1767659 -0.1656886
0.7472306 -0.172284 -0.1537247
0.7411635 -0.1780431 -0.1546466
0.7491322 -0.168377 -0.1582016
0.7507516 -0.1595675 -0.1574024
0.7525031 -0.1614458 -0.156173
0.7507952 -0.1535889 -0.1484149
0.7410002 -0.1396477 -0.1535436
0.7501554 -0.1378433 -0.1599758
0.7442305 -0.1248142 -0.1521527
0.7562865 -0.1360693 -0.1541494
0.7426587 -0.1162805 -0.1517766
0.7388592 -0.1153404 -0.1455886
0.7526518 -0.1144157 -0.1577605
0.7517403 -0.1061758 -0.163554
0.7448119 -0.09913122 -0.158412
0.7476008 -0.09021697 -0.1540336
0.7427298 -0.08379984 -0.1583108
0.7478679 -0.08882385 -0.151291
0.7431112 -0.06723403 -0.157386
0.75401 -0.07916451 -0.1517263
0.7545069 -0.07128838 -0.1592769
0.7553059 -0.06796444 -0.1583734
0.7479492 -0.06464131 -0.1557651
0.749299 -0.05569609 -0.154356
0.7474833 -0.04967836 -0.1629782
0.7554548 -0.04180592 -0.1525771
0.7424816 -0.04619786 -0.1631115
0.7546943 -0.02887897 -0.1562231
0.7442744 -0.02998468 -0.1591494
0.7540497 -0.01498837 -0.1547831
0.7453529 -0.02657673 -0.1662565
0.7555602 -0.00813486 -0.1499637
0.7515987 -0.007926413 -0.1571607
0.7515104 0.003244486 -0.1528608
0.7431161 -1.856082e-05 -0.1551336
0.7448412 0.0169239 -0.1603335
0.7430276 0.01570717 -0.1467289
0.7482929 0.01670778 -0.151433
0.7438317 0.02292753 -0.1564996
0.7537058 0.03090894 -0.1506093
0.7452753 0.03585645 -0.1506429
0.7475225 0.04331231 -0.1488421
0.7517914 0.05404916 -0.1532095
0.7491083 0.05386858 -0.1605195
0.7476267 0.05679993 -0.1500075
0.7546166 0.06568707 -0.1561464
0.7535059 0.06398252 -0.16462
0.7492492 0.08193705 -0.1533345
0.7420838 0.07443778 -0.1605438
0.7428363 0.08127589 -0.1576038
0.7432367 0.08828983 -0.155662
0.7504653 0.09266473 -0.1480143
0.7496977 0.1067428 -0.1518979
0.7512769 0.103581 -0.1484462
0.7452542 0.1090851 -0.1574672
0.7469252 0.1210226 -0.1554989
0.7479087 0.1185493 -0.1512846
0.7564801 0.1213526 -0.1527359
0.7472124 0.1184752 -0.1593412
0.7409235 0.1490709 -0.1494046
0.746471 0.1425197 -0.1500827
0.7511386 0.1458293 -0.1546022
0.7511431 0.1665591 -0.150958
0.7529773 0.1598065 -0.1550806
0.7509773 0.1693623 -0.1593277
0.7520603 0.1593772 -0.14538
0.7495139 0.1737601 -0.1484966
0.746792 0.1908202 -0.150529
0.7457314 0.1856973 -0.1436476
0.7491851 0.1901693 -0.1524304
0.7543285 0.1933284 -0.1545265
0.7562735 0.20206 -0.1546344
0.7429268 0.2082441 -0.1502497
0.7577631 0.2151773 -0.1469752
0.7475522 0.2215381 -0.1522873
0.7482684 0.2333336 -0.1542024
0.754124 0.2321676 -0.1587202
0.7450786 0.23524 -0.1622562
0.7510009 0.2483352 -0.1645897
0.7493764 0.2533957 -0.1542209
0.7412341 0.2587308 -0.1508331
0.7527584 0.2666762 -0.1601387
0.7452667 0.2676404 -0.1552353
0.7455806 0.2767028 -0.1566534
0.7458088 0.277572 -0.1552473
0.7451023 0.2773099 -0.1571699
0.7503299 0.292561 -0.1493195
0.7487544 0.2973365 -0.1535429
0.7461775 0.3035971 -0.159255
0.7384103 0.3134608 -0.1530007
0.7561028 0.3091805 -0.1458202
0.7558645 0.3258335 -0.1641704
0.7440348 0.3258728 -0.1482963
0.7426221 0.3379138 -0.1515685
0.750044 0.3424717 -0.1550036
0.7540999 0.3399096 -0.1618785
0.738633 0.3446558 -0.1505173
0.747008 0.3573346 -0.1580066
0.7482097 0.3704238 -0.1587546
0.7498968 0.3744965 -0.1627247
0.7481845 0.3709542 -0.1414301
0.7562264 0.378379 -0.156175
0.7472866 0.3894151 -0.154772
0.7586628 0.3955379 -0.1572048
0.7547556 0.4069136 -0.153516
0.7469987 0.4060239 -0.1548485
0.7492672 0.4124278 -0.1472109
0.7379705 0.4201214 -0.1561175
0.7478619 0.4408303 -0.1543682
0.7407158 0.438633 -0.1514359
0.7487799 0.451106 -0.1626534
0.7396926 0.4546613 -0.1506298
0.7472954 0.4594155 -0.1492593
0.7483446 0.4723159 -0.1563336
0.7474914 0.4744552 -0.1639418
0.7487562 0.4729767 -0.1473154
0.7464955 0.4927957 -0.1465442
0.7496042 0.4961471 -0.1495209
1.551621 1.052852 -0.3254835
1.545262 1.064367 -0.3238344
1.552776 1.079636 -0.3241664
1.552342 1.094718 -0.3201301
1.571245 -1.09883 -0.3177803
1.571206 -1.080893 -0.3064965
1.570029 -1.055072 -0.3136665
1.581416 -1.054052 -0.3145677
0.7574477 -0.4902121 -0.1477728
0.7598765 -0.4906593 -0.1518499
0.7548869 -0.4805009 -0.1575022
0.7605641 -0.4811691 -0.1528338
0.7611226 -0.4638453 -0.1514224
0.7674746 -0.451817 -0.1543085
0.7608824 -0.4470689 -0.1587636
0.753064 -0.451267 -0.1507795
0.7544907 -0.4379785 -0.1538878
0.7578652 -0.4326218 -0.1545797
0.7505909 -0.425627 -0.1531986
0.758237 -0.4223412 -0.1370737
0.7491984 -0.4092281 -0.1615855
0.7587444 -0.4143246 -0.1464956
0.7607545 -0.393215 -0.1480363
0.7583036 -0.3875569 -0.1437652
0.7563533 -0.3863719 -0.1601876
0.7495581 -0.3770035 -0.153008
0.763754 -0.3607367 -0.1511953
0.7497304 -0.3612609 -0.1512394
0.7606173 -0.3571181 -0.1580757
0.7571452 -0.3550746 -0.1455466
0.7573222 -0.3404618 -0.1517624
0.7521445 -0.3355242 -0.150721
0.7516913 -0.3259864 -0.1507058
0.7480735 -0.3283406 -0.1576654
0.760899 -0.3258202 -0.1500697
0.7516599 -0.3164129 -0.1449765
0.7558585 -0.3170813 -0.1488584
0.7620602 -0.2966982 -0.1463602
0.760208 -0.2885319 -0.1505246
0.7588093 -0.2786298 -0.1543769
0.7641358 -0.2798873 -0.1557127
0.7581004 -0.2789498 -0.1494857
0.7586502 -0.2712606 -0.1617643
0.7528775 -0.2604137 -0.1554882
0.7525187 -0.2585091 -0.1476373
0.7583226 -0.2554975 -0.1522645
0.7583399 -0.2541153 -0.1603595
0.7550141 -0.2454075 -0.1448363
0.7510881 -0.2328004 -0.1449196
0.7560459 -0.2315488 -0.1653202
0.7484788 -0.2258935 -0.140369
0.752377 -0.2120218 -0.1474969
0.7488725 -0.2122771 -0.1577188
0.7510651 -0.2061452 -0.1464196
0.751807 -0.2004485 -0.1463849
0.7582538 -0.1948829 -0.1425951
0.7552103 -0.1813044 -0.1463403
0.7559437 -0.1790766 -0.1531001
0.753556 -0.1798537 -0.1584355
0.757304 -0.1651232 -0.1542174
0.7527815 -0.1734322 -0.1519247
0.7548504 -0.1651947 -0.1483437
0.7510511 -0.1560109 -0.1533104
0.7580967 -0.1513694 -0.1448377
0.7587511 -0.1543508 -0.1492515
0.7557338 -0.1440474 -0.1522931
0.7656369 -0.1313493 -0.1573283
0.754841 -0.1307873 -0.1444237
0.7439553 -0.1172913 -0.156215
0.7629449 -0.112594 -0.1554007
0.7609578 -0.1098018 -0.1561792
0.7580801 -0.1027772 -0.1375407
0.7509036 -0.101012 -0.1508714
0.7573756 -0.1023402 -0.1556022
0.7560488 -0.09472551 -0.1550428
0.7609092 -0.089076 -0.1548506
0.7475675 -0.07816569 -0.1495499
0.7668498 -0.07657535 -0.1466746
0.7483613 -0.06560127 -0.1432476
0.7491094 -0.06136464 -0.1495972
0.754349 -0.05853144 -0.1505944
0.7519385 -0.05850002 -0.1531215
0.7528657 -0.04511214 -0.1564002
0.754271 -0.04230006 -0.1474676
0.750227 -0.04214391 -0.1590517
0.7579308 -0.03666738 -0.1499009
0.7551047 -0.02827495 -0.1550202
0.7601357 -0.02603514 -0.1570931
0.7644913 -0.02541237 -0.1549511
0.7604346 -0.02025283 -0.1585555
0.7530979 -0.01089009 -0.1541753
0.7549641 0.003064085 -0.1459934
0.7540727 -0.00529773 -0.1536428
0.7567408 0.01628165 -0.1525697
0.7480952 0.0227904 -0.1555985
0.7544503 0.01879265 -0.1578141
0.763232 0.02505735 -0.1537263
0.7547234 0.02868149 -0.1506007
0.7567483 0.03883604 -0.1533232
0.7559634 0.04982782 -0.1469335
0.7589531 0.04920951 -0.157729
0.7543774 0.05428283 -0.1515602
0.7553092 0.05107537 -0.1533899
0.7614843 0.05960464 -0.1474789
0.7573045 0.07144759 -0.1523814
0.7613117 0.07775492 -0.150079
0.7559835 0.07084262 -0.1497738
0.7477027 0.08258425 -0.1571818
0.7598677 0.09025601 -0.1545329
0.759827 0.09838862 -0.1438349
0.7572362 0.1051298 -0.1582441
0.7606398 0.1006599 -0.1570929
0.749663 0.1069693 -0.1498257
0.7632382 0.1116261 -0.1521153
0.7484707 0.1226447 -0.1577826
0.7504513 0.1336158 -0.1434755
0.7476766 0.1338591 -0.1537355
0.7587984 0.1362436 -0.1481151
0.7500858 0.1439941 -0.1483921
0.7504886 0.1490835 -0.1592547
0.7372508 0.1540519 -0.1605824
0.7572283 0.1664507 -0.1508502
0.7493802 0.1613435 -0.1509162
0.7586295 0.1755526 -0.1503082
0.7505243 0.1849864 -0.151848
0.7515473 0.1773642 -0.15452
0.7512619 0.1887354 -0.1481575
0.7622091 0.1969438 -0.1457135
0.7497869 0.1986446 -0.1540116
0.7446043 0.1980703 -0.1546408
0.7563195 0.2082654 -0.1504021
0.7584772 0.2157747 -0.1588932
0.7536682 0.2225345 -0.1493482
0.7488639 0.2324738 -0.1481484
0.755164 0.2430477 -0.1435836
0.7628421 0.2397311 -0.1567075
0.7520984 0.2500057 -0.1525689
0.7479526 0.2542963 -0.1489179
0.741948 0.2568963 -0.1535445
0.7508959 0.2723885 -0.1507998
0.7587118 0.2737993 -0.1519122
0.7611587 0.2785713 -0.1495048
0.7502096 0.2803707 -0.1435815
0.7550424 0.2855117 -0.1583981
0.7596942 0.2919688 -0.1479869
0.7634645 0.3091826 -0.1389812
0.760371 0.304989 -0.1500322
0.7544057 0.3098998 -0.1483826
0.7476203 0.3172951 -0.1544525
0.7593033 0.3218449 -0.151642
0.7538468 0.330462 -0.1481905
0.7600476 0.3476161 -0.1469578
0.7508552 0.3305115 -0.1493002
0.7521722 0.3433467 -0.1629068
0.7551139 0.3606812 -0.1513248
0.7552263 0.3687787 -0.1522956
0.747271 0.3735151 -0.1450463
0.762361 0.3758845 -0.1574417
0.7505146 0.3855889 -0.1463801
0.7579401 0.3863089 -0.1547581
0.754545 0.3986152 -0.155041
0.7481996 0.4035959 -0.1516058
0.7553267 0.4017489 -0.1508802
0.7570586 0.4117173 -0.1481237
0.7510301 0.4184918 -0.1566454
0.7453712 0.4360895 -0.1495311
0.7585685 0.4421057 -0.1502932
0.7546944 0.4336188 -0.1390949
0.7580718 0.4483294 -0.1502283
0.7481928 0.4562959 -0.1569936
0.7513833 0.4628678 -0.1572402
0.7503194 0.4740442 -0.1466002
0.7562395 0.4769336 -0.148226
0.7541128 0.4925732 -0.1581107
0.7514712 0.4963329 -0.1424109
1.567904 1.041721 -0.3152155
1.561685 1.057033 -0.32107
1.569271 1.068616 -0.3200354
1.569394 1.090009 -0.3080124
1.56833 1.108133 -0.3204158
1.589039 -1.086368 -0.312218
1.581934 -1.083544 -0.3031451
1.584433 -1.067929 -0.3119817
1.58984 -1.05162 -0.3019507
1.575039 -1.044065 -0.3067214
0.7616825 -0.4814502 -0.1481889
0.763027 -0.4887438 -0.1469476
0.7610336 -0.4816482 -0.1428226
0.7628778 -0.4781471 -0.1502444
0.7705193 -0.4625354 -0.1471951
0.7695338 -0.4593088 -0.1464421
0.7559193 -0.4473508 -0.1531309
0.764256 -0.4360885 -0.1528333
0.7707226 -0.4405782 -0.1496181
0.7607062 -0.4274753 -0.1384992
0.7619289 -0.4119456 -0.1486717
0.758202 -0.4067667 -0.1479557
0.7666763 -0.409169 -0.1499628
0.7609246 -0.3975567 -0.1493274
0.7464172 -0.3859813 -0.1427197
0.7606778 -0.3886391 -0.1444218
0.7565285 -0.3784093 -0.1484125
0.7563242 -0.3665313 -0.1497366
0.7658482 -0.3671579 -0.1527396
0.7528778 -0.3626524 -0.149404
0.756775 -0.3531801 -0.1420022
0.762554 -0.3452432 -0.1499927
0.7671915 -0.3346579 -0.1541223
0.773382 -0.3311842 -0.1501509
0.7614934 -0.3226765 -0.1422404
0.7621839 -0.3156505 -0.1428328
0.7541534 -0.326676 -0.1478402
0.7572409 -0.3089172 -0.1471267
0.76455 -0.2975317 -0.1460895
0.7681539 -0.2930695 -0.1533375
0.7644736 -0.2884219 -0.147443
0.7692405 -0.292254 -0.1483944
0.7581784 -0.2799859 -0.1494964
0.7559888 -0.2757198 -0.1505409
0.7633327 -0.2706595 -0.1523566
0.7680378 -0.2636777 -0.1501616
0.7648315 -0.2581481 -0.1479307
0.7692145 -0.2387104 -0.1438143
0.7604308 -0.2439813 -0.1484405
0.7575319 -0.2363635 -0.1507262
0.7668634 -0.2370471 -0.1523876
0.7587855 -0.2257299 -0.154001
0.76322 -0.21437 -0.1482926
0.7613232 -0.209058 -0.1438495
0.7648399 -0.2113401 -0.1405432
0.7681746 -0.1972586 -0.151237
0.7598216 -0.1991223 -0.1400999
0.7608603 -0.1854228 -0.1495074
0.7688553 -0.1954197 -0.1492878
0.7576782 -0.1729064 -0.1456551
0.7633241 -0.1698822 -0.1446117
0.7682393 -0.1687737 -0.1542776
0.770221 -0.1608211 -0.1543003
0.7612997 -0.1583076 -0.148677
0.7641283 -0.1477401 -0.1475324
0.7648315 -0.1488916 -0.1544666
0.7599362 -0.1370352 -0.1485602
0.7589504 -0.128738 -0.1426677
0.7516242 -0.1219175 -0.1475739
0.7652945 -0.1230166 -0.1486793
0.7741086 -0.1110631 -0.1409937
0.7587406 -0.1079527 -0.1409483
0.7596758 -0.1009747 -0.1467306
0.7606994 -0.1030131 -0.1391818
0.7561709 -0.1062668 -0.1447581
0.7609717 -0.08319594 -0.1521821
0.7602817 -0.0857964 -0.1444305
0.7546539 -0.09042819 -0.1459628
0.7655314 -0.0663894 -0.1374685
0.7574266 -0.06913627 -0.1344991
0.7585995 -0.06271392 -0.1438022
0.7635115 -0.05022584 -0.1475171
0.763297 -0.0570077 -0.1496495
0.7634063 -0.03677005 -0.1548191
0.752541 -0.05483194 -0.1517602
0.7672757 -0.04255579 -0.1454366
0.7597678 -0.03151963 -0.1617181
0.7659837 -0.02745431 -0.1493154
0.7601525 -0.01410216 -0.1560498
0.7662696 -0.01723159 -0.14449
0.7705568 -0.01075122 -0.1425254
0.7633263 -0.002133621 -0.1459073
0.7710547 0.003927656 -0.1410095
0.7526091 -0.00121369 -0.1396808
0.7617975 0.007272564 -0.1386933
0.7678536 0.0203835 -0.1455605
0.7596698 0.02103047 -0.1524104
0.7560022 0.02093546 -0.1548579
0.759737 0.03567185 -0.1450727
0.7541459 0.03633789 -0.1423302
0.7549128 0.04884256 -0.1583502
0.7610598 0.05000538 -0.1519093
0.7615635 0.04409426 -0.1514303
0.7637985 0.06569117 -0.1503406
0.7575677 0.06100727 -0.1451545
0.7664016 0.07086077 -0.1551177
0.7657791 0.07636023 -0.1499192
0.7651381 0.07866699 -0.1432353
0.7643937 0.09443451 -0.1566327
0.7618031 0.0927614 -0.1563156
0.76541 0.1050402 -0.1469451
0.7657629 0.1071504 -0.1442944
0.7696895 0.1008403 -0.1429871
0.761591 0.1141568 -0.139676
0.7642357 0.1223291 -0.1493852
0.7635625 0.1194233 -0.1501025
0.7556954 0.1344003 -0.153093
0.7634889 0.1258047 -0.13955
0.7632445 0.1300126 -0.1474974
0.7591682 0.1429258 -0.1460711
0.7650003 0.1529659 -0.1530063
0.7580774 0.1638768 -0.1456743
0.7626613 0.1627956 -0.1479773
0.7733949 0.1686515 -0.1522896
0.758137 0.1713659 -0.1499554
0.7743751 0.1750509 -0.1485701
0.7591 0.1842321 -0.154578
0.7670445 0.1849698 -0.1433126
0.7564412 0.191675 -0.1423521
0.7598738 0.1978712 -0.1483476
0.7594777 0.2078816 -0.1466535
0.7586729 0.2039054 -0.1495845
0.7527529 0.2171715 -0.1500386
0.767852 0.2263025 -0.1551908
0.7646332 0.2296467 -0.1437134
0.7602037 0.2358761 -0.146526
0.7588561 0.2482972 -0.1397288
0.7579972 0.2568667 -0.1474821
0.755762 0.2480718 -0.1522142
0.7623439 0.2662781 -0.1469204
0.7521939 0.2679094 -0.1407064
0.7623196 0.2628803 -0.1420717
0.7575554 0.2775916 -0.1519694
0.7554543 0.2737351 -0.1399926
0.765752 0.289252 -0.1359913
0.7629755 0.2982472 -0.1358004
0.765686 0.3088698 -0.1458217
0.7598045 0.3050961 -0.1401557
0.7512599 0.3173614 -0.1497833
0.7522096 0.319573 -0.1521164
0.76094 0.3293595 -0.1495654
0.7657353 0.3336214 -0.1368965
0.7620571 0.3440653 -0.142111
0.7665219 0.3587554 -0.1430968
0.7606165 0.3529089 -0.1459698
0.7588891 0.359861 -0.1500194
0.7592701 0.3576642 -0.1443723
0.7612021 0.3632848 -0.1549523
0.7631035 0.3806293 -0.1468559
0.7609177 0.3822452 -0.145239
0.7612315 0.3861903 -0.1513691
0.7619061 0.4009158 -0.1444203
0.7602149 0.4192427 -0.1477951
0.7554499 0.4018908 -0.1514242
0.7542162 0.4234951 -0.1464351
0.7600143 0.4296584 -0.1521605
0.7724475 0.4395947 -0.1400713
0.7587737 0.4404235 -0.1546079
0.7621482 0.4455824 -0.1455637
0.7575399 0.4547362 -0.1504743
0.7654648 0.4615745 -0.1483196
0.7637576 0.4658287 -0.152658
0.7596066 0.4773856 -0.1455308
0.7580538 0.4826826 -0.1553987
0.7663263 0.4842654 -0.140841
0.7628961 0.4996188 -0.1394653
1.581661 1.044973 -0.2992321
1.57362 1.062689 -0.3042372
1.578946 1.079802 -0.3033908
1.57613 1.097626 -0.3009723
1.569563 1.107923 -0.3104261
1.599424 -1.112767 -0.2885469
1.602107 -1.09383 -0.2967611
1.597048 -1.077837 -0.2921114
1.595847 -1.056056 -0.2839073
1.591432 -1.04886 -0.30506
0.7653375 -0.4969211 -0.1487535
0.7721529 -0.486701 -0.1502168
0.7861115 -0.4755324 -0.1443524
0.7735479 -0.4699296 -0.1409868
0.7667611 -0.4599536 -0.1465017
0.7742777 -0.4571529 -0.1492914
0.7772464 -0.4571233 -0.1396594
0.7776628 -0.4388289 -0.1457921
0.7704312 -0.4383949 -0.1433686
0.7715232 -0.4287175 -0.1391266
0.7724819 -0.4230782 -0.1345695
0.758628 -0.4091535 -0.1369174
0.7696505 -0.4108169 -0.1380052
0.7653599 -0.400627 -0.1378345
0.7717542 -0.3977712 -0.1447386
0.7790828 -0.3862713 -0.1520798
0.7694634 -0.3824384 -0.1415679
0.7632827 -0.3794687 -0.1469852
0.7720246 -0.3595795 -0.1420766
0.7683666 -0.3584268 -0.1524578
0.7738315 -0.3497167 -0.1414656
0.7672861 -0.3570457 -0.1351524
0.7614885 -0.3335333 -0.148334
0.767646 -0.3317488 -0.1440905
0.7684009 -0.3311347 -0.1495938
0.778392 -0.3268551 -0.1423239
0.7643564 -0.3133871 -0.1463603
0.7673741 -0.3143921 -0.1432323
0.7648297 -0.3104673 -0.1424757
0.7607169 -0.2926056 -0.1412863
0.7628723 -0.2902488 -0.1416521
0.7652987 -0.2848879 -0.1352339
0.7655343 -0.2777977 -0.1462502
0.7672924 -0.2744927 -0.1387957
0.7751616 -0.2711538 -0.1461588
0.7691686 -0.2583816 -0.1508156
0.7791355 -0.2526672 -0.1380546
0.7724022 -0.2451887 -0.1448329
0.7653617 -0.2468132 -0.1308079
0.7755392 -0.2369597 -0.1487477
0.7739838 -0.2294155 -0.150425
0.7665375 -0.2323227 -0.1372612
0.771271 -0.2285202 -0.1401915
0.7675132 -0.2162881 -0.1485912
0.772184 -0.2138639 -0.141618
0.7643792 -0.2018284 -0.1463961
0.7760161 -0.1969316 -0.1437943
0.7693402 -0.1909984 -0.1399261
0.7643002 -0.1832645 -0.144703
0.7725074 -0.1789971 -0.145849
0.7695683 -0.1793441 -0.1326806
0.7661979 -0.1618875 -0.139524
0.7692366 -0.1648372 -0.1430105
0.7707282 -0.1592014 -0.1453898
0.7757543 -0.161696 -0.143562
0.7613259 -0.1577101 -0.1419609
0.7716138 -0.1434718 -0.139123
0.7665991 -0.1357014 -0.1505556
0.7720295 -0.1401645 -0.1485544
0.7697282 -0.1156428 -0.1439811
0.7660006 -0.1257547 -0.1439825
0.7703773 -0.1151095 -0.1401206
0.7725462 -0.1070093 -0.1401865
0.7740602 -0.1058378 -0.145403
0.7653079 -0.09521692 -0.1422027
0.7733886 -0.08104701 -0.1414712
0.77825 -0.08374987 -0.1452598
0.7651023 -0.07075228 -0.1465367
0.764574 -0.07018515 -0.153189
0.7714803 -0.07379396 -0.1461796
0.7704601 -0.06542147 -0.145231
0.776803 -0.04938566 -0.1499664
0.7720696 -0.04819644 -0.1439382
0.7589105 -0.04394114 -0.1509446
0.7757472 -0.04136414 -0.1455681
0.7740979 -0.02677861 -0.1481102
0.7724981 -0.03434436 -0.1367029
0.7736446 -0.03062003 -0.1471094
0.7759356 -0.02116881 -0.1395943
0.7708678 -0.02058621 -0.1399672
0.7770844 -0.01410911 -0.1425954
0.769079 0.004057568 -0.1457809
0.7744378 0.009488778 -0.1408525
0.7643675 0.01231717 -0.1389616
0.7689468 0.00547205 -0.1384917
0.7633468 0.01792515 -0.1422768
0.7709894 0.03467598 -0.1473494
0.769272 0.02266127 -0.1399702
0.7704365 0.03603347 -0.140933
0.7691938 0.04259779 -0.1315598
0.7801152 0.04291023 -0.138252
0.757563 0.04965298 -0.1406213
0.7677099 0.05757455 -0.1474183
0.7663622 0.06464764 -0.1459356
0.7725549 0.06214974 -0.1470696
0.7701361 0.07139458 -0.1338177
0.7716327 0.07281237 -0.1410404
0.7620931 0.08436703 -0.1465196
0.776667 0.09215005 -0.14113
0.7578065 0.09377641 -0.1442195
0.7694566 0.09355587 -0.1448706
0.7645453 0.1052546 -0.1397385
0.7713992 0.1168002 -0.1391148
0.761921 0.1215346 -0.1480681
0.7737803 0.123843 -0.1445252
0.7756209 0.1225289 -0.1419477
0.7697846 0.1372389 -0.1412111
0.7643855 0.1367995 -0.154555
0.7667692 0.1381913 -0.1448175
0.7692584 0.1492783 -0.1579321
0.767608 0.1520975 -0.1413182
0.7629773 0.150573 -0.1274761
0.7677941 0.1632866 -0.1438955
0.7625467 0.1583145 -0.1524427
0.7592182 0.187899 -0.1489177
0.7628428 0.185193 -0.1433305
0.7626911 0.1946651 -0.1407831
0.7690185 0.1885507 -0.1430156
0.7677563 0.1981156 -0.143895
0.7699056 0.2011259 -0.1475876
0.7684563 0.2120981 -0.1444618
0.7719903 0.2169781 -0.1365128
0.7710959 0.2337831 -0.1467398
0.7601415 0.2308037 -0.1336815
0.7686209 0.2295509 -0.1392369
0.7672713 0.2426033 -0.1405641
0.7679683 0.2526295 -0.1417092
0.7658012 0.2386319 -0.1415637
0.7689222 0.2611842 -0.1331535
0.7732918 0.257654 -0.1453368
0.770305 0.2707151 -0.1462419
0.777878 0.2779296 -0.1387261
0.7730222 0.2732229 -0.1468114
0.774183 0.2863285 -0.1451595
0.7635653 0.2806251 -0.1420006
0.7548612 0.3030688 -0.1404145
0.7686249 0.3075608 -0.1365419
0.7563891 0.306935 -0.1454214
0.7655987 0.3200796 -0.1429293
0.765099 0.3214572 -0.1492418
0.7703509 0.3351292 -0.1334618
0.7628282 0.3391954 -0.1407098
0.7681124 0.3389264 -0.138555
0.7643547 0.3443111 -0.142888
0.7703907 0.3512865 -0.1475245
0.7684881 0.3572767 -0.1492965
0.7634526 0.3687624 -0.1480618
0.771994 0.3691052 -0.1349221
0.7765023 0.3724081 -0.1425932
0.7753074 0.3810168 -0.1422044
0.7685029 0.4032749 -0.1529571
0.7734698 0.4016623 -0.1431705
0.7646256 0.4032359 -0.141384
0.7687716 0.4185316 -0.1579594
0.7753207 0.4192429 -0.1484892
0.7681248 0.4251327 -0.1381553
0.7646157 0.436145 -0.1475127
0.7658852 0.4465033 -0.1517582
0.765029 0.4513185 -0.1431522
0.7539636 0.4511336 -0.1408952
0.7688486 0.463106 -0.1339115
0.772078 0.4774028 -0.1407054
0.7655117 0.480458 -0.1418775
0.7612877 0.4958315 -0.138888
0.7698713 0.4981397 -0.1422819
1.582032 1.03827 -0.2935632
1.5867 1.06009 -0.3002097
1.589723 1.070809 -0.2942203
1.590766 1.09276 -0.2939713
1.598283 1.111035 -0.296156
1.594983 1.119836 -0.298511
1.61442 -1.117806 -0.2941532
1.612623 -1.107095 -0.2869765
1.609899 -1.085225 -0.2931423
1.610714 -1.072223 -0.2936475
1.60891 -1.052038 -0.2889096
1.608438 -1.036077 -0.2938537
0.771015 -0.4793697 -0.1424838
0.7756117 -0.4914248 -0.1384659
0.7857262 -0.4738867 -0.1401139
0.7763786 -0.4699504 -0.1417774
0.7795472 -0.4608209 -0.1364336
0.7685434 -0.4547544 -0.133842
0.7901889 -0.4473354 -0.1350795
0.786359 -0.4311999 -0.1353101
0.7684552 -0.4372728 -0.1467223
0.775578 -0.4320276 -0.1324884
0.777903 -0.4180669 -0.1326589
0.7811844 -0.4216706 -0.1470398
0.7779689 -0.4119821 -0.1449166
0.7743548 -0.3926144 -0.1457629
0.7755613 -0.3935542 -0.1391139
0.7784319 -0.3879378 -0.1423276
0.7843369 -0.3771285 -0.1381988
0.7818841 -0.3743575 -0.1338775
0.7806141 -0.3689094 -0.1434024
0.7778916 -0.3593663 -0.1412326
0.7779747 -0.3526365 -0.1350803
0.7793242 -0.3464405 -0.1412236
0.783185 -0.3374576 -0.1366511
0.7761573 -0.3280678 -0.1460621
0.7859716 -0.3256595 -0.1290877
0.779762 -0.3216932 -0.1437139
0.7826253 -0.3106107 -0.1305881
0.7804319 -0.2983299 -0.145052
0.772962 -0.3068353 -0.1348174
0.7790837 -0.2898293 -0.1410668
0.7702853 -0.2967308 -0.1454858
0.7734644 -0.2789643 -0.1411579
0.7694729 -0.2767279 -0.1453297
0.773703 -0.2754325 -0.1443902
0.77553 -0.2731925 -0.1555482
0.7788805 -0.2564094 -0.1415006
0.7762055 -0.2560806 -0.1380443
0.7775092 -0.2466646 -0.1348724
0.7779903 -0.2435799 -0.1446958
0.7835693 -0.2251385 -0.1429373
0.7729264 -0.2349275 -0.1412763
0.7780705 -0.2219795 -0.1344939
0.7759877 -0.2122892 -0.1313865
0.7754641 -0.2149937 -0.1430467
0.7866899 -0.2075886 -0.1441003
0.7766974 -0.1967503 -0.1329523
0.7737302 -0.1956563 -0.1339905
0.7753872 -0.1835932 -0.1484367
0.7704203 -0.1780939 -0.140272
0.7788149 -0.1721765 -0.1412739
0.7712249 -0.1648056 -0.1385017
0.7756604 -0.1593276 -0.1377054
0.7831222 -0.1647385 -0.1432517
0.7719446 -0.1520764 -0.1473426
0.7694054 -0.1468668 -0.1402687
0.7868709 -0.1404662 -0.1395628
0.7697169 -0.1332514 -0.1395555
0.7737244 -0.1348388 -0.1372274
0.7748584 -0.129365 -0.1451585
0.7774739 -0.1246313 -0.1439359
0.776705 -0.1134916 -0.1452664
0.779522 -0.1141679 -0.1408821
0.7736547 -0.1026382 -0.1382407
0.7675464 -0.106203 -0.1400515
0.7859024 -0.09780826 -0.1363994
0.7794413 -0.08859902 -0.1450003
0.7791612 -0.08125027 -0.1363221
0.772417 -0.07554366 -0.1395018
0.7768373 -0.07766016 -0.1400014
0.7783518 -0.06072981 -0.1324778
0.7762405 -0.05946431 -0.1415552
0.77806 -0.05356696 -0.1368947
0.7785319 -0.04597485 -0.1361071
0.773987 -0.03949885 -0.141576
0.7728102 -0.0422967 -0.1353532
0.774628 -0.02564466 -0.1367019
0.7817395 -0.02149344 -0.1420628
0.7687448 -0.02161416 -0.1388782
0.7802387 -0.0120009 -0.1405659
0.7866216 -0.0004507258 -0.1391652
0.7789009 -0.01410183 -0.1440846
0.786653 0.005414012 -0.1320098
0.7739371 0.004927457 -0.150078
0.7822903 0.0001519445 -0.1393199
0.7781619 0.01279949 -0.133714
0.7765498 0.02493529 -0.1419369
0.7695212 0.02274998 -0.1390176
0.7749771 0.03122743 -0.1443233
0.7743284 0.04123099 -0.1355074
0.7773904 0.03962933 -0.1426341
0.7779415 0.05432103 -0.1322511
0.7713536 0.05573092 -0.1345571
0.7808631 0.06341417 -0.1317843
0.7715515 0.0692561 -0.1421379
0.7740657 0.08315888 -0.1443591
0.7774794 0.07818092 -0.1369836
0.7766137 0.08686203 -0.1363674
0.7739726 0.08478338 -0.1364749
0.7729223 0.09052707 -0.1391961
0.7746964 0.09793167 -0.1460306
0.7730084 0.1129287 -0.1362921
0.7682698 0.1116608 -0.1349335
0.7759064 0.1105429 -0.1245315
0.7808731 0.1176429 -0.1400136
0.7816228 0.12825 -0.1324664
0.772787 0.1364768 -0.139207
0.7795829 0.1292381 -0.1415312
0.7796948 0.1420747 -0.1383902
0.7741401 0.1560747 -0.1359654
0.7845715 0.15096 -0.1308308
0.7760187 0.1619323 -0.1459552
0.7796474 0.1667515 -0.1372088
0.7699294 0.1763987 -0.1337505
0.7740868 0.1857943 -0.1421681
0.7814696 0.1826846 -0.1449054
0.7775751 0.1964725 -0.1522382
0.7878503 0.1876843 -0.1401591
0.7759961 0.1982071 -0.1424978
0.7762771 0.2060815 -0.1354178
0.7850714 0.216474 -0.1343757
0.7762511 0.2253629 -0.1348275
0.768063 0.2311549 -0.1500041
0.7713333 0.2245745 -0.1415838
0.7723011 0.2427268 -0.1368105
0.7761798 0.2427303 -0.1380018
0.7689812 0.2418992 -0.1393837
0.7804671 0.2542439 -0.1403089
0.7712992 0.2600088 -0.1452902
0.7696919 0.2620746 -0.1311439
0.7804282 0.2689144 -0.1384391
0.7767032 0.2746651 -0.1421815
0.7759278 0.2810259 -0.1356899
0.781931 0.2855713 -0.1388852
0.7750905 0.2881125 -0.144549
0.7727539 0.3071636 -0.1394975
0.7749057 0.3064401 -0.1428865
0.7731382 0.3102528 -0.133543
0.7809182 0.3175933 -0.1407702
0.7782648 0.3227867 -0.1429759
0.7777823 0.3367684 -0.1335156
0.7777466 0.3379955 -0.1380492
0.782634 0.3487553 -0.136062
0.7864534 0.3477383 -0.1350712
0.7733402 0.3612918 -0.1406593
0.7853164 0.3674912 -0.1346595
0.7776898 0.3781339 -0.1346561
0.7767417 0.3842351 -0.1408757
0.7779768 0.3784925 -0.141558
0.7711856 0.3853095 -0.1379268
0.7763188 0.3985127 -0.1390633
0.7738956 0.4045549 -0.1408896
0.7804059 0.4109284 -0.1437405
0.7739493 0.4195322 -0.14045
0.7771559 0.430339 -0.1354912
0.7716025 0.4309246 -0.1475697
0.770824 0.4372296 -0.1525779
0.7804345 0.4432306 -0.1379992
0.7782925 0.4559834 -0.1406978
0.7733413 0.462056 -0.1374739
0.7680848 0.4599982 -0.1430932
0.7684395 0.4711274 -0.1372095
0.7751282 0.4797151 -0.1305859
0.7693721 0.482289 -0.1371456
0.7792639 0.4930062 -0.1451306
1.615622 1.052317 -0.2882345
1.606979 1.067053 -0.2957098
1.598436 1.074497 -0.2899366
1.60225 1.094423 -0.2959863
1.603345 1.104967 -0.2879051
1.612037 1.12528 -0.2878977
1.619819 -1.129409 -0.2844661
1.630404 -1.116606 -0.2773131
1.635957 -1.093052 -0.28313
1.633993 -1.069088 -0.2789083
1.632673 -1.064378 -0.2848089
1.63474 -1.045758 -0.2781587
0.784473 -0.4936161 -0.1339357
0.7936106 -0.4838852 -0.1376981
0.7860928 -0.4821865 -0.1393185
0.7770728 -0.4691136 -0.138055
0.7855633 -0.4688856 -0.1346853
0.7814507 -0.454883 -0.134464
0.7839149 -0.4565032 -0.1344486
0.7886624 -0.4372449 -0.1284648
0.7828668 -0.4347946 -0.1306177
0.7893178 -0.4308634 -0.1430182
0.7847605 -0.4238342 -0.1311081
0.7886629 -0.4133579 -0.1447801
0.7854962 -0.4122363 -0.1358931
0.7811959 -0.40033 -0.13496
0.7875471 -0.3993846 -0.1378713
0.7908522 -0.3947359 -0.1299434
0.7853676 -0.3778231 -0.1349247
0.7813908 -0.3755019 -0.1300645
0.7842034 -0.3668398 -0.1320083
0.7858639 -0.3631507 -0.1242275
0.7831312 -0.3546665 -0.1412212
0.7844772 -0.3699409 -0.1399358
0.7844496 -0.3419625 -0.1390752
0.7794002 -0.3494476 -0.1387244
0.7822524 -0.3307588 -0.1535159
0.7829024 -0.317285 -0.1398576
0.7799724 -0.3101458 -0.1320916
0.7801296 -0.3106545 -0.1316102
0.7881425 -0.307037 -0.1326607
0.7876882 -0.2938035 -0.1309625
0.7758444 -0.2838154 -0.130851
0.7893197 -0.2896455 -0.1460671
0.7846788 -0.2777304 -0.1284902
0.7793431 -0.2803546 -0.1381201
0.7854439 -0.2734813 -0.1455183
0.788691 -0.2694386 -0.1278363
0.7790293 -0.2639134 -0.1338267
0.7929565 -0.2518407 -0.132467
0.7918097 -0.2479275 -0.1306938
0.7846944 -0.2371731 -0.1352511
0.7867158 -0.2299967 -0.13524
0.7866366 -0.2282771 -0.1232435
0.7931957 -0.2210022 -0.134739
0.784989 -0.208797 -0.1376244
0.7800919 -0.2091356 -0.1293646
0.7845877 -0.1983914 -0.141853
0.7869259 -0.1990291 -0.1356945
0.7843677 -0.1887301 -0.1386592
0.7751036 -0.1912521 -0.1295632
0.7776206 -0.1825859 -0.1320593
0.7923881 -0.1620083 -0.1330812
0.7943222 -0.1626526 -0.1400783
0.7814885 -0.169187 -0.1381046
0.7731149 -0.1498035 -0.1364646
0.7851886 -0.1479393 -0.1273488
0.784406 -0.1562423 -0.1378729
0.7818106 -0.1388627 -0.125017
0.780912 -0.1317607 -0.133253
0.7808006 -0.1371909 -0.1304286
0.7812103 -0.1152747 -0.1384916
0.7812941 -0.1170526 -0.1360146
0.7861634 -0.1094171 -0.1486598
0.7806137 -0.1037753 -0.1427914
0.7808318 -0.1038974 -0.1395176
0.7820466 -0.08803421 -0.1330065
0.782676 -0.09038392 -0.1361792
0.7962002 -0.08382315 -0.138305
0.7845911 -0.08510219 -0.1410668
0.7851264 -0.07508876 -0.1394836
0.7749791 -0.07829485 -0.1294225
0.7743772 -0.06208455 -0.1319717
0.7831832 -0.05970751 -0.1443192
0.7763308 -0.04508329 -0.1360498
0.7746469 -0.046314 -0.1348285
0.7885921 -0.03981743 -0.1286408
0.787819 -0.03158509 -0.1330805
0.777842 -0.02682166 -0.1298659
0.7879286 -0.01912244 -0.1369743
0.7855725 -0.01114596 -0.1396626
0.784565 -0.006657409 -0.1470657
0.7751397 -0.01129243 -0.1314451
0.7741271 0.005000004 -0.1266765
0.7824156 -0.0012809 -0.1357281
0.7855428 0.01521904 -0.1400935
0.7831627 0.0116898 -0.1323293
0.7833431 0.02344456 -0.1413575
0.7824888 0.02337528 -0.1413712
0.7877227 0.04044065 -0.1424703
0.7911365 0.03881293 -0.131024
0.7938038 0.04074909 -0.1309364
0.7807086 0.04889616 -0.1248999
0.7843679 0.05535021 -0.142814
0.7787067 0.06634561 -0.1382967
0.7831197 0.06830774 -0.1339126
0.7866206 0.07832555 -0.1366446
0.7864965 0.07506654 -0.1386766
0.771859 0.0780208 -0.1282846
0.7809972 0.0882959 -0.1320506
0.7799527 0.09281849 -0.1345307
0.7820944 0.09357684 -0.1433852
0.7839696 0.1092302 -0.1389157
0.7811399 0.1094303 -0.1414069
0.7705625 0.1159041 -0.1431592
0.791396 0.1173431 -0.1367345
0.7809752 0.1283482 -0.1346697
0.780477 0.1331591 -0.1377116
0.7805715 0.1494517 -0.1337391
0.7859576 0.1426399 -0.1392065
0.7904084 0.1495365 -0.1307666
0.7832144 0.1500516 -0.1276645
0.7803327 0.1515554 -0.1420945
0.7759175 0.173949 -0.127477
0.7899393 0.1702881 -0.1401412
0.7919151 0.1731687 -0.1356135
0.7802051 0.1852391 -0.1357919
0.7901953 0.1816896 -0.1379987
0.7787335 0.2022682 -0.1324288
0.7934471 0.2071231 -0.1347158
0.7784564 0.200105 -0.1350244
0.7828825 0.207813 -0.1323511
0.7835606 0.2067314 -0.1332918
0.7847732 0.2210477 -0.1398991
0.7802354 0.2344751 -0.1285305
0.7812123 0.2406615 -0.1328475
0.7847729 0.2368512 -0.135592
0.7777276 0.2526905 -0.145929
0.7731732 0.2505467 -0.1320776
0.780206 0.2530194 -0.1376008
0.786889 0.2646883 -0.1380627
0.7849895 0.2764412 -0.134692
0.783722 0.2803382 -0.1318329
0.7828087 0.2879354 -0.1403484
0.7869455 0.2835146 -0.140895
0.7786061 0.2922932 -0.1394425
0.7881231 0.3102085 -0.1416267
0.781533 0.3138568 -0.1432409
0.7766601 0.3223071 -0.1353324
0.7835196 0.3306485 -0.1362405
0.7861569 0.3244616 -0.1434813
0.7744528 0.3333573 -0.1235374
0.7854372 0.3359214 -0.1271031
0.7745942 0.3487501 -0.144642
0.7847191 0.34872 -0.1414015
0.7756296 0.3660666 -0.141371
0.7816889 0.3617721 -0.1340751
0.7762285 0.3715394 -0.1353951
0.7715666 0.3780963 -0.1335717
0.7867372 0.3937235 -0.1321972
0.7758717 0.3955923 -0.1293261
0.7819294 0.4021395 -0.1305622
0.7844914 0.4120673 -0.1281095
0.7710617 0.4078603 -0.1306898
0.7869836 0.423944 -0.1357761
0.7772522 0.4349817 -0.1381167
0.7816458 0.4360565 -0.1314372
0.7834097 0.4426444 -0.1281677
0.7822872 0.4536835 -0.133685
0.7777606 0.460882 -0.1266497
0.7787372 0.4571708 -0.1407532
0.7821807 0.4781412 -0.1364302
0.7796289 0.4685644 -0.1374301
0.7830582 0.4903718 -0.1323763
0.7742595 0.4942348 -0.1340647
1.62323 1.044351 -0.277205
1.625843 1.054749 -0.2829131
1.625582 1.06898 -0.2937804
1.62198 1.097824 -0.2796878
1.622203 1.102506 -0.2815905
1.622276 1.122262 -0.2816841
1.625961 1.130836 -0.2821175
1.649333 -1.14232 -0.2681335
1.646807 -1.129002 -0.2706394
1.650975 -1.10466 -0.2682535
1.63631 -1.084616 -0.2794479
1.649828 -1.062332 -0.2814855
1.640683 -1.061692 -0.2759216
1.641151 -1.032881 -0.2731467
0.7902473 -0.4910701 -0.1297859
0.7966805 -0.4806177 -0.1300303
0.7905961 -0.4674439 -0.1306169
0.7898793 -0.4636699 -0.1316586
0.7954891 -0.4604335 -0.1296742
0.7857286 -0.4467085 -0.1235411
0.7885066 -0.4478551 -0.1286395
0.7982032 -0.4442049 -0.1365972
0.7869298 -0.434749 -0.1245243
0.7854844 -0.4312611 -0.1305069
0.7916099 -0.4234506 -0.1272663
0.7951058 -0.4087214 -0.1290308
0.798146 -0.4164913 -0.1390225
0.7934105 -0.410169 -0.1246631
0.7934631 -0.3976269 -0.1353899
0.7962055 -0.3814507 -0.1272722
0.7875338 -0.3755692 -0.1367996
0.79084 -0.3756622 -0.1295326
0.7928939 -0.3701321 -0.1381425
0.79742 -0.3550471 -0.1342239
0.7863713 -0.3483537 -0.1358209
0.793548 -0.3467283 -0.1312307
0.7960733 -0.3334163 -0.1296156
0.7899296 -0.3326604 -0.1231126
0.7857965 -0.3255364 -0.1363226
0.7976969 -0.3221198 -0.1307122
0.7941065 -0.3202756 -0.128777
0.7895446 -0.3038461 -0.1287683
0.788991 -0.3021082 -0.1381572
0.7970425 -0.2891203 -0.1354616
0.7914796 -0.2867812 -0.1327253
0.7903532 -0.2772463 -0.1268544
0.788987 -0.2726944 -0.1289486
0.7934887 -0.2746014 -0.1237444
0.7956142 -0.2649507 -0.132161
0.7965604 -0.2502669 -0.130462
0.8015841 -0.2434056 -0.1286047
0.7943047 -0.2412029 -0.1313055
0.7911376 -0.2407145 -0.1387716
0.7946684 -0.2350339 -0.1291685
0.7895271 -0.2232469 -0.1371474
0.7911059 -0.2229609 -0.1438028
0.7912259 -0.2069643 -0.1293242
0.7775407 -0.2013703 -0.1362227
0.7940527 -0.2068873 -0.1343753
0.7970948 -0.2036632 -0.1295752
0.79018 -0.193591 -0.1353101
0.7888613 -0.1906403 -0.1349525
0.7960408 -0.1783925 -0.1358831
0.7881271 -0.1676686 -0.1265172
0.7882394 -0.1738534 -0.1402093
0.788642 -0.1656865 -0.1398755
0.7928167 -0.1450743 -0.1257495
0.7855554 -0.1486856 -0.1347159
0.7819277 -0.1458505 -0.1299835
0.7944854 -0.1443003 -0.1265994
0.787941 -0.1254177 -0.1329491
0.7913781 -0.133263 -0.135424
0.7887142 -0.1211351 -0.1336935
0.785204 -0.1135106 -0.1255504
0.7866123 -0.1142324 -0.1295729
0.7915372 -0.1088441 -0.1298135
0.787711 -0.1015991 -0.1311742
0.7942728 -0.09641347 -0.1211524
0.7960864 -0.09730303 -0.142447
0.797747 -0.09085827 -0.1286932
0.7902727 -0.07703084 -0.1322848
0.7957371 -0.07537793 -0.1325778
0.7957051 -0.06751502 -0.1329284
0.7873325 -0.06570973 -0.1265618
0.7824906 -0.05210348 -0.1336196
0.7985432 -0.04469905 -0.1337034
0.7936901 -0.04744587 -0.1262603
0.796158 -0.03829241 -0.1311388
0.7922114 -0.03261261 -0.128364
0.7933884 -0.03251344 -0.1277467
0.7898076 -0.02411185 -0.1347045
0.791792 -0.02242331 -0.125937
0.7894332 -0.008147131 -0.1283605
0.7937309 -0.008636886 -0.1322272
0.7785523 0.00146953 -0.121927
0.7865821 0.01514497 -0.1328937
0.789332 0.01263443 -0.1279254
0.7838705 0.01822842 -0.1319295
0.7894535 0.02318585 -0.1281573
0.7906702 0.03388987 -0.1313561
0.7911782 0.03312263 -0.1270916
0.7894513 0.0393425 -0.1289983
0.7871765 0.03887544 -0.1239403
0.7941516 0.05044718 -0.1388897
0.7950691 0.05627398 -0.1363533
0.7891738 0.0568088 -0.134368
0.7920789 0.06528393 -0.1467986
0.7963682 0.07178598 -0.1241679
0.7924194 0.07943668 -0.1296659
0.7888941 0.08008412 -0.1211524
0.7997939 0.09469614 -0.1349827
0.7962465 0.09375434 -0.1318493
0.7881955 0.1013457 -0.1318577
0.7949243 0.1042058 -0.1334594
0.7871907 0.1071488 -0.1320327
0.7940065 0.1253582 -0.1304002
0.7871407 0.1173071 -0.123537
0.7865888 0.1256391 -0.1264538
0.7889223 0.1302296 -0.1268678
0.8005394 0.1495738 -0.1269929
0.7894365 0.1503244 -0.1311926
0.7837886 0.1534313 -0.1265816
0.7833818 0.1570355 -0.1250035
0.7914902 0.1584948 -0.1216093
0.7870163 0.1656858 -0.1409179
0.789117 0.1679871 -0.1332624
0.7930905 0.1784838 -0.1283258
0.7852499 0.1793389 -0.1301641
0.7935851 0.1908761 -0.1341306
0.7842155 0.1928677 -0.1300817
0.7827569 0.2133131 -0.1279417
0.7976018 0.2015467 -0.1363543
0.7939198 0.2118416 -0.1258121
0.7935442 0.2154583 -0.1226685
0.7856609 0.2200801 -0.1241104
0.7840988 0.2262873 -0.1339726
0.7946115 0.2373669 -0.1311474
0.7846708 0.2411665 -0.1336913
0.7892317 0.244197 -0.1271721
0.7920271 0.2575276 -0.1291173
0.7904781 0.2639814 -0.1290631
0.7881743 0.2656576 -0.13352
0.789952 0.2818831 -0.1227671
0.7967903 0.2828433 -0.1292567
0.7833055 0.2924834 -0.1237784
0.7860233 0.3016008 -0.1231248
0.7850442 0.2991041 -0.1311243
0.7922416 0.298307 -0.1238344
0.785589 0.3160812 -0.1353868
0.7854447 0.3106143 -0.1272627
0.7952195 0.3192067 -0.1280326
0.791126 0.32947 -0.1276247
0.7907944 0.3420071 -0.1268914
0.7855179 0.3552286 -0.1334945
0.7938339 0.3436515 -0.1298597
0.7911243 0.3509975 -0.1336433
0.7931685 0.3590949 -0.1196539
0.7931893 0.3748854 -0.1330292
0.7854767 0.3763506 -0.1241848
0.790337 0.3750241 -0.1218743
0.7813557 0.3907569 -0.1257166
0.7817937 0.3996589 -0.1200972
0.7833642 0.3969434 -0.1323501
0.7841597 0.4095245 -0.1356077
0.7905234 0.4140065 -0.1264694
0.7968127 0.4220991 -0.1305291
0.7881573 0.4324437 -0.135758
0.7917539 0.4303577 -0.1316822
0.7849519 0.4443507 -0.1215759
0.7841575 0.4566948 -0.1284785
0.7838081 0.4618471 -0.1316407
0.7950662 0.4790942 -0.1355729
0.7883846 0.4833637 -0.1299112
0.7900905 0.4842527 -0.1224277
0.787347 0.495717 -0.1289959
0.7783983 0.4983063 -0.1302734
1.642571 1.053014 -0.2712751
1.635852 1.068965 -0.2716623
1.637924 1.085728 -0.2700981
1.639094 1.093448 -0.263465
1.635232 1.113716 -0.2835293
1.636837 1.131843 -0.2706175
1.647614 1.151919 -0.2699561
1.649454 -1.139098 -0.2585482
1.666963 -1.131174 -0.2651034
1.658762 -1.108474 -0.2583101
1.654927 -1.101893 -0.2670754
1.646596 -1.08385 -0.2657539
1.663949 -1.05688 -0.264017
1.648176 -1.057705 -0.2636503
0.7967357 -0.4941154 -0.1336342
0.7903151 -0.488694 -0.1239815
0.8026313 -0.4866158 -0.1248881
0.802003 -0.4698532 -0.1375077
0.8062234 -0.4694474 -0.129837
0.7907783 -0.4529656 -0.126072
0.7943929 -0.4560801 -0.1231249
0.8001338 -0.440854 -0.1306499
0.7919042 -0.4379247 -0.1291196
0.7985858 -0.4261993 -0.128016
0.8102928 -0.4269076 -0.1190468
0.8029144 -0.4119852 -0.1195666
0.7979808 -0.4084238 -0.1333938
0.7918912 -0.4006818 -0.1225259
0.7959658 -0.399654 -0.1218715
0.8021691 -0.3853546 -0.1142306
0.8030568 -0.3777226 -0.1329031
0.7923398 -0.3740102 -0.1324402
0.8024512 -0.3663746 -0.126279
0.7995871 -0.362499 -0.1295271
0.8015417 -0.3507379 -0.130869
0.7979183 -0.3501443 -0.1266285
0.7946694 -0.33251 -0.1288942
0.7934297 -0.3312195 -0.1334981
0.7944771 -0.3282671 -0.1384423
0.8077781 -0.3173269 -0.1358654
0.7968267 -0.3105281 -0.1244557
0.8012996 -0.3047467 -0.118625
0.7994978 -0.3161781 -0.122016
0.8000357 -0.2934183 -0.1208625
0.7909383 -0.2868806 -0.1223501
0.7980829 -0.2755562 -0.1279359
0.800603 -0.2805386 -0.1262715
0.8144931 -0.2750893 -0.1260156
0.8002136 -0.2565175 -0.1295265
0.7914998 -0.2562085 -0.1295739
0.8041279 -0.257412 -0.120465
0.79917 -0.2445721 -0.1311921
0.8022748 -0.2400239 -0.1245822
0.8002764 -0.2356463 -0.120724
0.798291 -0.225723 -0.1287372
0.8049306 -0.2211306 -0.1218663
0.8039315 -0.2131988 -0.1259697
0.7962472 -0.2147798 -0.1212118
0.8058088 -0.207094 -0.1225848
0.7990621 -0.2080663 -0.1229471
0.7969652 -0.188423 -0.1274033
0.7985929 -0.1892363 -0.1255662
0.7910409 -0.1785689 -0.1307523
0.801536 -0.1656871 -0.1334609
0.7926265 -0.1712051 -0.1308944
0.8061707 -0.1604401 -0.1298401
0.8066686 -0.1502968 -0.1265111
0.796919 -0.1523913 -0.1289933
0.8106124 -0.1501726 -0.1281815
0.80643 -0.1417108 -0.1235074
0.8091334 -0.1366001 -0.1326115
0.7875693 -0.1334172 -0.1291066
0.8047966 -0.121402 -0.1178178
0.7991384 -0.1200674 -0.1281415
0.7961566 -0.1118565 -0.1262888
0.7992263 -0.09969958 -0.1177781
0.8021867 -0.09307427 -0.1183123
0.7984307 -0.09119066 -0.1242773
0.7936614 -0.0821595 -0.1291665
0.8059996 -0.08912048 -0.1291158
0.8037279 -0.08285214 -0.1188453
0.8051043 -0.06907236 -0.117109
0.7995214 -0.07104538 -0.1331997
0.7938713 -0.07174571 -0.1251675
0.7985079 -0.05490132 -0.129071
0.7927825 -0.05495794 -0.1201871
0.801632 -0.03965094 -0.1326888
0.7999163 -0.03617152 -0.1299624
0.8038326 -0.03185662 -0.1267202
0.7960749 -0.02431951 -0.1242912
0.7959632 -0.02053733 -0.12697
0.7964582 -0.01508517 -0.1202483
0.7906317 -0.01151638 -0.1227193
0.7965181 -0.00944427 -0.132014
0.8001248 -0.009950324 -0.1296246
0.7906997 0.001626774 -0.1202788
0.799332 0.01655773 -0.1245277
0.8045074 0.01555281 -0.1280646
0.7964486 0.01694441 -0.1254697
0.7901562 0.02355783 -0.1295067
0.797227 0.03502639 -0.1289439
0.7913547 0.04109153 -0.1339141
0.7980722 0.04961686 -0.1365365
0.7985371 0.04962172 -0.1284521
0.8073652 0.05973194 -0.1234248
0.8014621 0.06255224 -0.1224892
0.7886671 0.06498305 -0.126971
0.7937922 0.07943767 -0.1282088
0.7945079 0.08076429 -0.1211105
0.8060884 0.08008826 -0.1232697
0.7951388 0.08130104 -0.1259752
0.7944025 0.09123151 -0.1365228
0.799068 0.1000726 -0.1335354
0.7920985 0.1037491 -0.1299871
0.7841558 0.1165255 -0.1203839
0.7991511 0.1184736 -0.1302164
0.8007877 0.1274656 -0.1212351
0.7951723 0.1343162 -0.1391227
0.8069934 0.1234316 -0.1274281
0.7951165 0.1350024 -0.124474
0.7947736 0.1468789 -0.1306839
0.7906896 0.1475306 -0.1342733
0.7905709 0.1577029 -0.114661
0.7932469 0.1625898 -0.1176485
0.8021421 0.1765482 -0.1312181
0.798989 0.1836896 -0.1328147
0.7994094 0.1820233 -0.1240965
0.8037455 0.1763773 -0.119346
0.794026 0.1925346 -0.127636
0.80089 0.1985223 -0.1270971
0.7891459 0.2096417 -0.1307779
0.7917996 0.2047897 -0.1293312
0.794029 0.2194696 -0.1381326
0.8018506 0.2202063 -0.1194126
0.7925857 0.233456 -0.1230663
0.8028906 0.23613 -0.1236245
0.7943334 0.2468499 -0.1204467
0.7956017 0.2447371 -0.1250078
0.7950308 0.2613102 -0.1221423
0.8014163 0.2588924 -0.1273162
0.7990996 0.2646004 -0.1341071
0.7893043 0.2703829 -0.1177022
0.800172 0.2704434 -0.1297561
0.7982436 0.2833506 -0.1361848
0.793027 0.2852825 -0.1236773
0.7942088 0.2929731 -0.1299935
0.7918175 0.3005857 -0.1339614
0.7917833 0.3006135 -0.1303606
0.8085111 0.3149682 -0.1250142
0.8036028 0.3248034 -0.1324624
0.7956797 0.3311093 -0.1314791
0.7954314 0.342329 -0.1352004
0.7966536 0.3404117 -0.1321354
0.8004965 0.357716 -0.1266735
0.7913712 0.346518 -0.1277661
0.8017697 0.3577079 -0.1275896
0.79071 0.3687024 -0.1372368
0.8054717 0.368612 -0.1299476
0.8010111 0.3840837 -0.1282031
0.7998512 0.3765115 -0.1293247
0.7889159 0.4007823 -0.1260105
0.7954276 0.4008622 -0.1286688
0.7944061 0.3979553 -0.1187019
0.787513 0.4200242 -0.1166793
0.7986875 0.4188705 -0.1176453
0.7957448 0.4298195 -0.1251584
0.7961013 0.4370612 -0.1198301
0.7911459 0.4384115 -0.1313663
0.7990948 0.4515431 -0.1193497
0.8011802 0.4622592 -0.1257241
0.7973875 0.456872 -0.1280481
0.7939755 0.470727 -0.1262973
