# .PCD v.7 - Point Cloud Data file format
FIELDS x y z
SIZE 4 4 4
TYPE F F F
COUNT 1 1 1
WIDTH 1523
HEIGHT 1
VIEWPOINT 0 0 0 1 0 0 0
POINTS 1523
DATA ascii
1.20953 0.7169629 -0.5175092
1.210292 0.7288665 -0.5222142
1.210178 0.7406459 -0.5149118
1.211475 0.7496484 -0.5159744
1.216757 0.7662042 -0.5158396
1.213363 0.7781837 -0.51463
1.212886 0.7911786 -0.5195109
1.212212 0.7976152 -0.5131219
1.204752 0.818788 -0.5167422
1.214426 0.8201346 -0.5216241
1.207138 0.8442176 -0.5187994
1.213251 0.8431948 -0.5137734
1.219972 0.8650023 -0.5089803
1.211444 0.8691217 -0.508836
0.6575521 0.4723361 -0.2836757
0.6494139 0.4798327 -0.277517
0.6384898 0.4848781 -0.2765616
0.6415752 -0.4811852 -0.2776902
0.6533679 -0.4791439 -0.269253
0.6493196 -0.4664855 -0.27834
0.6475741 -0.4591905 -0.2623508
0.6456902 -0.4497158 -0.2730383
0.6407334 -0.4473753 -0.2776887
0.6541726 -0.438845 -0.2650544
0.6527739 -0.4376194 -0.2700129
0.643364 -0.4281361 -0.2703548
0.6509928 -0.4174592 -0.2694854
0.6529709 -0.4103934 -0.2756475
0.6545774 -0.4073535 -0.2677727
0.6515824 -0.398753 -0.2742522
0.654631 -0.3943922 -0.2694288
0.6490489 -0.3831201 -0.2641158
0.6384891 -0.3688831 -0.264691
0.6471094 -0.3771073 -0.2685532
0.6387508 -0.3630822 -0.266428
0.645081 -0.3674232 -0.2660682
0.6545374 -0.3540241 -0.2737759
0.6492541 -0.3544407 -0.2665893
0.6464053 -0.3373828 -0.2658385
0.6552073 -0.3306265 -0.2719764
0.6481957 -0.3387789 -0.2713482
0.6490742 -0.3281811 -0.2776154
0.648786 -0.3171111 -0.2700975
0.6449411 -0.3116336 -0.271102
0.6546319 -0.3024543 -0.268292
0.6503925 -0.2927099 -0.2643012
0.6397091 -0.3081234 -0.2680773
0.6551283 -0.2800393 -0.2704223
0.6455704 -0.2887917 -0.2657154
0.6465147 -0.2768353 -0.2719987
0.6499077 -0.2841767 -0.2769029
0.6411427 -0.2727974 -0.2721922
0.6531335 -0.261858 -0.2688021
0.6476781 -0.2553159 -0.2705782
0.6471232 -0.259505 -0.2696587
0.6509364 -0.2485192 -0.265953
0.6457564 -0.2437149 -0.2681208
0.6464148 -0.2464481 -0.2742353
0.6442913 -0.2421428 -0.2687533
0.6483597 -0.2320344 -0.2679959
0.653946 -0.2106328 -0.2742063
0.6494143 -0.2144023 -0.2713708
0.6503649 -0.21023 -0.2781157
0.642783 -0.1991796 -0.2661742
0.6491684 -0.2035226 -0.267337
0.6557711 -0.19142 -0.2780846
0.6488006 -0.1924057 -0.2736969
0.6511572 -0.1870718 -0.2694737
0.6450929 -0.1740921 -0.2765428
0.6540008 -0.1730113 -0.2778456
0.6478267 -0.1726754 -0.2752505
0.6465818 -0.1639137 -0.273357
0.6463909 -0.1581571 -0.2786637
0.6486582 -0.1462572 -0.2732046
0.6465539 -0.151375 -0.26913
0.6511438 -0.1417244 -0.2681044
0.650222 -0.1281558 -0.2710489
0.6453124 -0.1333475 -0.2720826
0.653088 -0.1314267 -0.2786269
0.6500329 -0.1272186 -0.2749802
0.641099 -0.1177366 -0.270432
0.652063 -0.1106964 -0.2710731
0.653433 -0.109191 -0.2699418
0.6631371 -0.1071204 -0.2687756
0.655894 -0.09289822 -0.2710415
0.6400759 -0.09387959 -0.275743
0.6453063 -0.08903106 -0.2680086
0.6510026 -0.08243544 -0.2708331
0.6533607 -0.0810098 -0.2735851
0.6372747 -0.07282371 -0.2727552
0.6382937 -0.0653841 -0.2735488
0.6563938 -0.06233744 -0.2638445
0.6474162 -0.04892717 -0.2833483
0.6472636 -0.05091942 -0.2791834
0.6464485 -0.05258757 -0.2719591
0.6484141 -0.04316134 -0.2770435
0.6468785 -0.03228652 -0.2702145
0.6573924 -0.0329562 -0.2754543
0.6463593 -0.0327533 -0.2657042
0.6379704 -0.02604765 -0.2682576
0.6475863 -0.02694355 -0.2673859
0.6560126 -0.008691256 -0.2714001
0.6537406 -0.0007138003 -0.2720894
0.6564353 -0.007508537 -0.2759652
0.6427258 -0.007171371 -0.2707372
0.6494526 0.004704891 -0.2723631
0.644612 0.007879158 -0.2766797
0.6518124 0.01222582 -0.2729397
0.6451819 0.01454194 -0.2710602
0.653039 0.01935181 -0.2661147
0.6487439 0.03518666 -0.2761842
0.6413557 0.02836524 -0.2704601
0.6482214 0.03851825 -0.2714349
0.6538673 0.04447123 -0.2712563
0.6487145 0.03748875 -0.2694399
0.6543689 0.05346533 -0.2732746
0.6506548 0.05394912 -0.265094
0.6497274 0.05533613 -0.2658484
0.6442087 0.07262238 -0.279168
0.6470671 0.07272812 -0.2713666
0.6484823 0.07491615 -0.2722393
0.6458327 0.08706612 -0.2622349
0.6417391 0.08571735 -0.2702426
0.6483784 0.08938374 -0.2705677
0.6438546 0.08716849 -0.270348
0.6444646 0.09921654 -0.2719422
0.6567512 0.1125542 -0.2655319
0.6579465 0.1128441 -0.2728676
0.6466225 0.1188521 -0.2730567
0.6459249 0.1217689 -0.2728413
0.6429013 0.1302578 -0.2640758
0.6348882 0.1365355 -0.260408
0.6480021 0.1256881 -0.2727394
0.6467323 0.1358439 -0.2657201
0.6434551 0.1484841 -0.2771607
0.6491327 0.1594339 -0.2715984
0.6484732 0.1511206 -0.2710941
0.640702 0.1636149 -0.2725604
0.6545779 0.1603767 -0.2643818
0.6474099 0.1786317 -0.2725302
0.6410727 0.1844387 -0.2671976
0.6408328 0.1882228 -0.2809559
0.6447434 0.1841562 -0.2756271
0.6503795 0.1866769 -0.2659959
0.6404414 0.1969488 -0.2775247
0.6473586 0.2068956 -0.2636177
0.6484486 0.2007597 -0.263605
0.6414326 0.2092763 -0.2634951
0.6425649 0.225034 -0.273071
0.6409383 0.2213389 -0.2646351
0.6466599 0.2300808 -0.2776583
0.6487344 0.2373459 -0.2702544
0.6500852 0.2319905 -0.2662197
0.6525729 0.2416548 -0.2661656
0.6414536 0.2477337 -0.2777231
0.6489053 0.2480558 -0.2600344
0.6488518 0.2699107 -0.2713485
0.6485641 0.2667935 -0.2700875
0.6527792 0.2664176 -0.2664908
0.648395 0.2825536 -0.2721476
0.6458958 0.2841731 -0.2806543
0.650893 0.2875294 -0.2669033
0.6490781 0.294333 -0.2728989
0.6429605 0.2980204 -0.2771286
0.6554906 0.3067265 -0.2710855
0.645464 0.3103899 -0.2695318
0.6473675 0.3091201 -0.2670771
0.6503081 0.3280925 -0.2661156
0.6470561 0.3302577 -0.2701133
0.6576522 0.3305895 -0.2692275
0.6588429 0.3429956 -0.2610358
0.6520905 0.3448766 -0.271246
0.651804 0.3574531 -0.2696809
0.6434997 0.3579018 -0.2642595
0.6575196 0.3729519 -0.2756357
0.6374651 0.374584 -0.2630633
0.6475431 0.381016 -0.2561559
0.6516122 0.3885841 -0.2739598
0.641592 0.3921225 -0.2676734
0.6498131 0.3987711 -0.271462
0.6410058 0.40273 -0.2726596
0.6497659 0.4092651 -0.2686071
0.6502806 0.4082774 -0.2718661
0.6365705 0.4265643 -0.2711709
0.6477983 0.428296 -0.2726113
0.6486916 0.4272287 -0.262477
0.6481439 0.4477375 -0.2643796
0.6399694 0.4481912 -0.2664804
0.654169 0.4597949 -0.2651936
0.6403128 0.4595213 -0.2717664
0.6474845 0.4673862 -0.2717511
0.6541007 0.4785819 -0.2729668
0.6453285 0.479688 -0.2760545
0.6555942 -0.4766328 -0.268914
0.6504645 -0.4691117 -0.2612288
0.6437111 -0.4619218 -0.2633996
0.6418309 -0.4580698 -0.2750546
0.6429853 -0.4460856 -0.2645431
0.6388358 -0.4382473 -0.2669956
0.641239 -0.4401472 -0.2584395
0.6421435 -0.4274028 -0.266773
0.6501941 -0.4247628 -0.2546209
0.6415162 -0.4130738 -0.2691766
0.6455222 -0.4192607 -0.2628123
0.6447445 -0.4074462 -0.268655
0.6474004 -0.3961278 -0.270711
0.6371468 -0.3924749 -0.2654273
0.6475788 -0.3912852 -0.2613319
0.6431721 -0.3750165 -0.2628354
0.6397622 -0.3745788 -0.2571532
0.6454227 -0.3574908 -0.2639858
0.644244 -0.3683644 -0.2631632
0.6426773 -0.3572156 -0.2711056
0.6370071 -0.3493278 -0.2643848
0.6378261 -0.3300528 -0.2624095
0.6422226 -0.3322611 -0.262768
0.6466785 -0.3292086 -0.2724186
0.6442866 -0.3258778 -0.260136
0.6442003 -0.3242672 -0.2675951
0.6369717 -0.3034656 -0.2640823
0.639532 -0.2995878 -0.2655703
0.6451994 -0.2960767 -0.2718735
0.6556268 -0.290307 -0.2693101
0.6462412 -0.289655 -0.2658538
0.6508951 -0.2880806 -0.2606794
0.6426054 -0.2730954 -0.2649679
0.6416472 -0.2751195 -0.2584112
0.6441226 -0.2711287 -0.2531952
0.6445886 -0.2613094 -0.2724921
0.6462805 -0.2599166 -0.2613371
0.6452765 -0.2506655 -0.2666095
0.640946 -0.2487779 -0.2610696
0.6509799 -0.2438143 -0.2661836
0.6440595 -0.2417471 -0.2639169
0.6591239 -0.22443 -0.2604262
0.641207 -0.2280684 -0.2673079
0.6405019 -0.2207035 -0.2658733
0.6525847 -0.2154091 -0.2661737
0.6395982 -0.1963232 -0.2613965
0.6401859 -0.2006696 -0.254981
0.6399853 -0.1942114 -0.2618955
0.6492278 -0.1890236 -0.2679376
0.6452289 -0.1910653 -0.2568617
0.6493566 -0.1832149 -0.2574472
0.6419404 -0.1788496 -0.2682284
0.6433773 -0.1690603 -0.2561105
0.6323238 -0.1676308 -0.2592544
0.6568441 -0.1622067 -0.2659219
0.6433256 -0.1522875 -0.2530189
0.6406544 -0.1500484 -0.257911
0.6397621 -0.1416704 -0.2627807
0.6473249 -0.1412133 -0.2591048
0.6480012 -0.1407095 -0.2638428
0.6520631 -0.1386627 -0.253441
0.6400121 -0.1245256 -0.2722169
0.6387662 -0.118118 -0.2579873
0.6447222 -0.1169914 -0.2640119
0.6411122 -0.108627 -0.2690542
0.6446182 -0.1074406 -0.2656898
0.6442863 -0.1013353 -0.2620296
0.6506225 -0.09920675 -0.2625413
0.6441056 -0.09001116 -0.2607203
0.6505752 -0.08276445 -0.2698701
0.6475222 -0.07793607 -0.2627397
0.6442244 -0.07874492 -0.2646682
0.6446668 -0.07322702 -0.2568588
0.6357839 -0.073183 -0.2619483
0.6370969 -0.06953565 -0.2682816
0.6350271 -0.05445634 -0.2594813
0.6447056 -0.05545795 -0.2647043
0.646277 -0.05116715 -0.2652991
0.6321163 -0.0421103 -0.2614192
0.64866 -0.04189373 -0.2516714
0.6410044 -0.03706014 -0.2688758
0.6363212 -0.02874725 -0.254145
0.6498016 -0.02292906 -0.2661914
0.6453674 -0.02360006 -0.262261
0.6383579 -0.00786181 -0.2645971
0.634662 -0.01188737 -0.2608435
0.6452384 -0.002094506 -0.2645879
0.6356481 0.001634333 -0.2609338
0.6433454 0.001570922 -0.2633425
0.6493661 0.01560263 -0.2616997
0.6454214 0.01506489 -0.2705445
0.6399776 0.0276182 -0.2717162
0.6453763 0.02077528 -0.2659191
0.6406407 0.02182654 -0.2674738
0.6466075 0.03866627 -0.270236
0.6399471 0.04342039 -0.2538191
0.6462265 0.03773538 -0.2671977
0.6420546 0.05189937 -0.2593384
0.6406071 0.05281255 -0.2647728
0.6413984 0.06111046 -0.2719385
0.6477555 0.06641116 -0.2699412
0.6444349 0.05830905 -0.2659804
0.6408614 0.07293694 -0.2642168
0.6447086 0.07263675 -0.2661333
0.6488508 0.09564432 -0.2601194
0.6422415 0.08649311 -0.2684746
0.6361451 0.09704433 -0.2557316
0.6404637 0.09897251 -0.2608597
0.6521383 0.1057249 -0.2602838
0.6444864 0.1071306 -0.2619798
0.6465438 0.1074051 -0.2682175
0.6380658 0.1183411 -0.2594141
0.6420243 0.1252101 -0.2593408
0.6450133 0.1307038 -0.26258
0.6405911 0.1289742 -0.2599466
0.6368968 0.1418217 -0.2639952
0.6337202 0.1396878 -0.269851
0.6478009 0.1478185 -0.2580046
0.6412201 0.1543957 -0.261627
0.6397853 0.1669363 -0.2572512
0.6453583 0.1688036 -0.2574694
0.6484184 0.1615478 -0.2691145
0.6392229 0.168702 -0.2616258
0.6431971 0.1813864 -0.2607048
0.6427357 0.1890664 -0.2615593
0.6436722 0.1844546 -0.268868
0.6394816 0.1969128 -0.2589882
0.6458046 0.1860675 -0.2644173
0.6499419 0.2027832 -0.2638229
0.6469194 0.2138349 -0.2633049
0.6445565 0.2081172 -0.2696656
0.6457593 0.2109396 -0.2597315
0.6483299 0.2230211 -0.2656689
0.6400518 0.2232606 -0.2684002
0.6485178 0.2319681 -0.2670753
0.6451009 0.2475276 -0.2640832
0.6409404 0.2453718 -0.2638356
0.6372252 0.2528631 -0.2614715
0.6398013 0.2557626 -0.2682621
0.6523059 0.263554 -0.2689485
0.6329116 0.2693155 -0.2678989
0.6449184 0.2690161 -0.2639869
0.6502237 0.2738788 -0.2656549
0.6412263 0.2875218 -0.2651984
0.6516535 0.2898992 -0.269736
0.6440499 0.2934682 -0.2625097
0.6449171 0.2972609 -0.2673281
0.6445875 0.2970002 -0.2647829
0.6434689 0.3108852 -0.2586491
0.6329936 0.3178259 -0.2613808
0.6428413 0.3310435 -0.2648927
0.6404728 0.3329164 -0.2647785
0.644439 0.335321 -0.266053
0.6370592 0.3426323 -0.2551888
0.6419683 0.3459376 -0.2652742
0.644646 0.3578708 -0.2620664
0.6426253 0.3508199 -0.2665773
0.6434028 0.3716432 -0.262475
0.6468331 0.3705688 -0.2585655
0.6402752 0.3725297 -0.2621707
0.6469403 0.3845764 -0.2624499
0.6413714 0.3914192 -0.2686804
0.643673 0.3944396 -0.2596271
0.6477745 0.3991978 -0.2659976
0.6362251 0.4098216 -0.2555453
0.63402 0.408937 -0.2536214
0.6390511 0.4132273 -0.2653842
0.6389574 0.4170066 -0.2609105
0.638017 0.4352935 -0.2601455
0.6468862 0.4299905 -0.2543277
0.6366473 0.4496227 -0.2659062
0.6438317 0.4475094 -0.2755967
0.634587 0.4569477 -0.2678035
0.63701 0.4630347 -0.2655714
0.6420805 0.4734793 -0.264223
0.6381606 0.4718069 -0.2754107
0.639824 -0.4729532 -0.2640345
0.6407553 -0.4721907 -0.2576757
0.6363143 -0.4536704 -0.2636847
0.6412146 -0.4484265 -0.2521273
0.6437173 -0.4462433 -0.2601348
0.6363172 -0.4474212 -0.2603241
0.6484818 -0.4321459 -0.2636806
0.6406028 -0.427088 -0.2530644
0.6370469 -0.4146178 -0.2521115
0.6392063 -0.4083064 -0.2574477
0.6416695 -0.4053778 -0.2629745
0.643393 -0.3898347 -0.2580775
0.63741 -0.3964441 -0.2617216
0.6416869 -0.3822843 -0.2591608
0.6399183 -0.3784468 -0.2596653
0.6368483 -0.372314 -0.2567131
0.6434858 -0.3688978 -0.2520649
0.6428443 -0.3620829 -0.2588547
0.6554367 -0.3521575 -0.2545609
0.6400962 -0.3516135 -0.2638084
0.6335142 -0.341927 -0.2576663
0.6362187 -0.3446369 -0.2594743
0.6370816 -0.3328962 -0.2552952
0.639273 -0.330922 -0.2482266
0.6405562 -0.3127581 -0.2636035
0.6338618 -0.322803 -0.2536396
0.6375831 -0.3032096 -0.2546961
0.6349558 -0.3055713 -0.2535658
0.6409933 -0.3027021 -0.2605594
0.6333236 -0.2966518 -0.2601733
0.6457881 -0.2808312 -0.2610751
0.6410886 -0.2823614 -0.2480207
0.6359847 -0.2730282 -0.2534301
0.6456606 -0.2620967 -0.2528867
0.6435042 -0.2681239 -0.2640975
0.6438848 -0.2568505 -0.260271
0.6525977 -0.2540623 -0.2636587
0.6429552 -0.2431417 -0.2514633
0.6499763 -0.246228 -0.2625766
0.6461853 -0.2410725 -0.2597916
0.6376789 -0.2352748 -0.2583448
0.6429714 -0.2227536 -0.2615611
0.6378629 -0.2225928 -0.2569759
0.6424102 -0.2130435 -0.2512321
0.6403882 -0.2121906 -0.2572445
0.6414779 -0.2035317 -0.2640491
0.6409419 -0.196548 -0.2556678
0.6515453 -0.194889 -0.2668646
0.6369641 -0.1924458 -0.2550462
0.6402231 -0.1850481 -0.2605202
0.6439981 -0.1814462 -0.2529851
0.6387098 -0.1710166 -0.2551091
0.6422615 -0.1750474 -0.2565996
0.637888 -0.1589984 -0.2574772
0.638334 -0.1572901 -0.2648574
0.6427656 -0.1535414 -0.252574
0.6389374 -0.1460133 -0.2535688
0.6475856 -0.1355522 -0.2537113
0.6380398 -0.1402989 -0.2600496
0.6404774 -0.1274285 -0.2614324
0.6418154 -0.1356614 -0.2559468
0.6422958 -0.1330517 -0.2597342
0.643399 -0.1234543 -0.2510816
0.6485766 -0.1235293 -0.2634069
0.64728 -0.1100686 -0.2585662
0.6369049 -0.1114539 -0.2668058
0.6444313 -0.09631307 -0.2597843
0.6446219 -0.09507336 -0.2625657
0.6448093 -0.09903135 -0.2624767
0.6453471 -0.08932721 -0.2617882
0.6484868 -0.07913289 -0.2536221
0.6409686 -0.08141007 -0.2608513
0.6356271 -0.07151145 -0.2577303
0.6492872 -0.07219087 -0.2522916
0.6391796 -0.06208501 -0.2499534
0.6386117 -0.06129035 -0.2501164
0.6340507 -0.05971032 -0.2614142
0.6438227 -0.046058 -0.2576748
0.6514255 -0.03923142 -0.2565667
0.6425291 -0.03350648 -0.2577672
0.6344059 -0.03113427 -0.2589039
0.6455328 -0.03727281 -0.2617303
0.6335891 -0.02410105 -0.25831
0.6465838 -0.01717416 -0.255956
0.6358272 -0.0121745 -0.2618972
0.6403658 -0.007492802 -0.249966
0.6438506 0.0002588873 -0.2479015
0.630129 0.004973529 -0.2514444
0.6416561 0.008475359 -0.2522769
0.642019 0.01031129 -0.2494275
0.6429994 0.01714993 -0.25959
0.6408952 0.0194523 -0.2565123
0.6400358 0.02935925 -0.2536132
0.6389486 0.03370761 -0.2602579
0.6394164 0.03709207 -0.2612826
0.6432515 0.03644782 -0.2689167
0.6387556 0.04527752 -0.2668566
0.6427367 0.04915622 -0.2632848
0.635223 0.04914679 -0.2570572
0.6407685 0.06162586 -0.2630735
0.6357619 0.06518015 -0.262374
0.6363574 0.06139546 -0.271411
0.6377597 0.0718196 -0.2508526
0.6397915 0.07383788 -0.2534781
0.6395572 0.08458257 -0.263963
0.63218 0.08843322 -0.2668543
0.6405142 0.08843409 -0.2545384
0.6358339 0.09619439 -0.2623628
0.6310899 0.09441146 -0.2591115
0.6473807 0.1035506 -0.2530286
0.6424055 0.1052665 -0.2593393
0.6394418 0.1085844 -0.2558047
0.6433274 0.1142387 -0.2530013
0.6471047 0.1260352 -0.2588017
0.6417521 0.1257697 -0.2605473
0.6369184 0.1249865 -0.2521009
0.6480051 0.1396963 -0.25869
0.6403782 0.1450331 -0.2667416
0.6376214 0.1475798 -0.2560396
0.6406242 0.1572336 -0.2622839
0.6399066 0.1482249 -0.2590947
0.6348833 0.1617604 -0.2592931
0.6401113 0.1701662 -0.2409081
0.6432585 0.1629719 -0.2516577
0.6406905 0.1849144 -0.2525492
0.6437988 0.1828755 -0.2534117
0.6397589 0.1936863 -0.2536713
0.6369095 0.1897437 -0.2531089
0.6398281 0.1922942 -0.2562826
0.6376557 0.2019256 -0.2632805
0.6387656 0.2141324 -0.2546491
0.6316617 0.2164921 -0.2624142
0.633898 0.2109093 -0.2600703
0.6313587 0.2234811 -0.2514188
0.6383994 0.2274055 -0.2533164
0.6413708 0.2400323 -0.2584972
0.6343952 0.2439321 -0.2639593
0.6264603 0.2449598 -0.2574005
0.6366472 0.2488599 -0.262954
0.6360925 0.2537192 -0.2526458
0.6448275 0.25554 -0.2497604
0.6349469 0.2685235 -0.261002
0.6453243 0.2749985 -0.2525506
0.6429335 0.2832929 -0.2502396
0.6288671 0.2764078 -0.2504048
0.6313215 0.2950057 -0.261003
0.6426376 0.3049589 -0.2568466
0.6404619 0.3022197 -0.2575553
0.6390073 0.3114876 -0.2599819
0.6357897 0.324685 -0.2546393
0.6368504 0.3173793 -0.2650928
0.6393589 0.3158051 -0.251097
0.6368584 0.3280588 -0.2576013
0.6301488 0.3407373 -0.2548622
0.6310335 0.3352464 -0.2438781
0.6413035 0.3484579 -0.258352
0.6374549 0.3519557 -0.256255
0.6375914 0.356687 -0.2556323
0.6425139 0.3623425 -0.2569676
0.6394678 0.3735945 -0.2632429
0.6372265 0.3885666 -0.2590713
0.6405604 0.3797396 -0.2622189
0.6421959 0.3955021 -0.247638
0.6393568 0.3963478 -0.2494129
0.6388953 0.4110041 -0.2672111
0.6398588 0.4102142 -0.2519952
0.648068 0.4161732 -0.2577031
0.6407179 0.4250286 -0.2601463
0.6438415 0.4226289 -0.2608757
0.6339053 0.4329558 -0.254096
0.6306092 0.4452578 -0.2692632
0.639185 0.4528677 -0.2560777
0.6431143 0.4564703 -0.2528504
0.6437891 0.4672346 -0.2536355
0.6348165 0.4623449 -0.2535773
0.6370137 0.4695904 -0.2598856
0.6376921 -0.46357 -0.250674
0.6285428 -0.4639741 -0.2484528
0.6420023 -0.451708 -0.2493237
0.6361212 -0.4359279 -0.2555871
0.6299068 -0.4387073 -0.249432
0.6353272 -0.428991 -0.2486412
0.6356229 -0.4294099 -0.2560138
0.6282214 -0.4244244 -0.2537243
0.6364968 -0.4114703 -0.2452717
0.6357712 -0.4117412 -0.245579
0.6404606 -0.4003391 -0.2501118
0.6391957 -0.3822696 -0.2531835
0.6329857 -0.3877676 -0.253332
0.6419407 -0.3816585 -0.2509614
0.6382219 -0.370175 -0.2418803
0.6267661 -0.3605235 -0.2496123
0.6323125 -0.3596734 -0.2547363
0.6342109 -0.3572032 -0.2490103
0.6377934 -0.3531999 -0.2520049
0.6313552 -0.3438242 -0.2481304
0.6452259 -0.3303559 -0.2497611
0.6321601 -0.3351303 -0.2538296
0.6425939 -0.3304954 -0.2556553
0.641863 -0.3228887 -0.2608353
0.6399746 -0.3123747 -0.2556082
0.6346 -0.3093948 -0.2466326
0.6378103 -0.3111829 -0.2464651
0.6396776 -0.2933577 -0.2491413
0.6352516 -0.2988283 -0.2415008
0.6446353 -0.2812767 -0.2509809
0.6425524 -0.2764778 -0.2535341
0.6401368 -0.2782829 -0.2555603
0.6366057 -0.2668706 -0.2497616
0.6319424 -0.2685604 -0.2597159
0.6315474 -0.2631744 -0.2461992
0.6385555 -0.2522608 -0.2519843
0.6315417 -0.2461443 -0.2545997
0.638427 -0.2384707 -0.2568102
0.6348493 -0.2529942 -0.2512402
0.642952 -0.2300358 -0.2526364
0.6333364 -0.2224834 -0.2585305
0.6296384 -0.2311169 -0.2414995
0.633314 -0.2215841 -0.2464793
0.6417734 -0.211209 -0.2557712
0.6333123 -0.209898 -0.2475547
0.6355021 -0.2081209 -0.2468927
0.6287251 -0.1960797 -0.2541705
0.6410527 -0.1862693 -0.2554656
0.6340229 -0.190884 -0.2485787
0.6391261 -0.1896729 -0.2505569
0.639333 -0.1705212 -0.2474857
0.6394244 -0.1728273 -0.2492738
0.6428081 -0.161983 -0.2475557
0.6336323 -0.1623948 -0.2467276
0.6400154 -0.1600047 -0.2498132
0.6345468 -0.1534485 -0.2406235
0.6363518 -0.14519 -0.2593804
0.6389416 -0.1450749 -0.2535192
0.6335391 -0.1417147 -0.2464566
0.63415 -0.138895 -0.2545532
0.6330866 -0.1289319 -0.2428005
0.6347807 -0.1245215 -0.2501915
0.6386197 -0.1152555 -0.2504327
0.6375521 -0.1176305 -0.2504468
0.6429679 -0.1104458 -0.2526703
0.6383879 -0.09803919 -0.2501346
0.635665 -0.09832215 -0.2542208
0.6394769 -0.09558412 -0.2553277
0.6309578 -0.09236386 -0.2519839
0.6361319 -0.08841645 -0.2504239
0.6332482 -0.08518391 -0.2631587
0.6303994 -0.06251776 -0.2636697
0.6364862 -0.06873513 -0.2473101
0.6256758 -0.07293817 -0.247483
0.6347398 -0.07004406 -0.2549292
0.6370045 -0.05115592 -0.2495243
0.634915 -0.05568118 -0.248132
0.6341069 -0.04862594 -0.2478883
0.6453628 -0.03769382 -0.254591
0.6383775 -0.03991469 -0.2590165
0.634968 -0.02884714 -0.2490457
0.633618 -0.02695055 -0.2499029
0.6332307 -0.03095094 -0.2465955
0.6441123 -0.02327113 -0.2461309
0.6338552 -0.02054257 -0.2459524
0.6424643 -0.01044013 -0.2470026
0.6389517 -0.002928587 -0.2381669
0.6345447 -0.002325111 -0.256761
0.638506 0.01009714 -0.2530593
0.6368976 0.01576252 -0.2488564
0.6351043 0.02091265 -0.2548308
0.6371498 0.01435003 -0.25286
0.642415 0.02176549 -0.2539455
0.6404681 0.0296495 -0.2527023
0.6383677 0.03411449 -0.2488371
0.6426575 0.04161035 -0.2476729
0.642095 0.04419759 -0.2592635
0.6320096 0.04864415 -0.2459699
0.6394604 0.06254031 -0.2590509
0.6376417 0.06277092 -0.2504769
0.6377785 0.06221306 -0.2536096
0.6299153 0.06266937 -0.245138
0.6343435 0.07242613 -0.2550393
0.6364732 0.07922556 -0.2606247
0.6334035 0.07633793 -0.2499666
0.6399628 0.08796553 -0.2512791
0.633956 0.09770173 -0.2491935
0.6429771 0.09676135 -0.248238
0.6305071 0.0925308 -0.2557887
0.6310152 0.1058302 -0.2525606
0.639132 0.1055152 -0.248357
0.6440608 0.1162078 -0.2427748
0.6405914 0.1283775 -0.2466045
0.6294417 0.12298 -0.248572
0.6308441 0.1451097 -0.2480248
0.642482 0.1333774 -0.2524606
0.6423969 0.1336801 -0.2526615
0.6275769 0.1471072 -0.2492903
0.6337557 0.1489996 -0.2515128
0.644313 0.1611992 -0.2427754
0.6336523 0.1551988 -0.2583603
0.6344566 0.1578994 -0.2478206
0.6339581 0.1656148 -0.2523786
0.638575 0.1685834 -0.2483116
0.6367873 0.176149 -0.2540706
0.6253058 0.1730163 -0.2470688
0.6281648 0.1949296 -0.2473918
0.6319601 0.1901762 -0.2555667
0.6379198 0.1938754 -0.2533747
0.6268978 0.2039253 -0.2544056
0.637633 0.2074111 -0.2520499
0.6317121 0.2091307 -0.2488676
0.6371133 0.2167857 -0.2509072
0.6350434 0.228648 -0.2543511
0.633648 0.2281346 -0.2560929
0.6385582 0.2297475 -0.2479188
0.6356896 0.2326557 -0.2450529
0.6329517 0.2475533 -0.2548915
0.6228529 0.246477 -0.2517179
0.6289001 0.2479646 -0.2511658
0.6298894 0.264534 -0.2529173
0.634159 0.2599544 -0.2473025
0.6363092 0.264704 -0.2558734
0.6330863 0.2809175 -0.2465041
0.6401177 0.285898 -0.2575066
0.6272855 0.2912894 -0.2431718
0.6431364 0.2932787 -0.2538527
0.6360745 0.3030876 -0.2428026
0.6323973 0.3112435 -0.2519482
0.6341121 0.3098942 -0.2542389
0.6316401 0.3171559 -0.2529935
0.632702 0.3150035 -0.2404356
0.6323503 0.3266401 -0.2480261
0.6373274 0.3274842 -0.2484944
0.6366168 0.3390623 -0.2519092
0.63831 0.3428239 -0.2475899
0.6306121 0.3476832 -0.2427259
0.6338515 0.3623912 -0.256882
0.639115 0.3538426 -0.2413708
0.6230448 0.3724294 -0.2456406
0.631671 0.3716034 -0.2523617
0.6353844 0.375005 -0.2557297
0.6283839 0.3785374 -0.2526802
0.6334924 0.3898983 -0.2505715
0.6393841 0.4024051 -0.252295
0.6310565 0.398294 -0.2578851
0.6201073 0.4048388 -0.2526232
0.6307644 0.4208238 -0.2518345
0.6378455 0.4275936 -0.2516573
0.64072 0.4285855 -0.253915
0.6354728 0.4369926 -0.244109
0.6383042 0.4425651 -0.2428484
0.6314355 0.4528229 -0.2442971
0.631479 0.4534783 -0.2497285
0.6360819 0.4730806 -0.2507713
0.6365201 0.4558257 -0.2479337
0.6335901 -0.4641564 -0.2403021
0.6313676 -0.4636038 -0.2432786
0.6205954 -0.4457982 -0.2413356
0.6333283 -0.449544 -0.2440624
0.6423514 -0.4344247 -0.2322493
0.6292095 -0.4229035 -0.2491896
0.6345062 -0.4256523 -0.2412358
0.6429773 -0.42384 -0.2476698
0.6402026 -0.4216957 -0.2442238
0.6302186 -0.4082515 -0.2446004
0.6337935 -0.3948416 -0.2450532
0.6280767 -0.3893797 -0.2467946
0.6355989 -0.3879985 -0.2386356
0.6399443 -0.3832584 -0.2426522
0.6378243 -0.3735938 -0.2365538
0.637373 -0.3686551 -0.2416762
0.6226457 -0.3635794 -0.2421348
0.6264607 -0.3481743 -0.2465618
0.6362863 -0.3423438 -0.2463289
0.6324044 -0.3409497 -0.2435801
0.6313316 -0.3365281 -0.2508607
0.6311177 -0.3303479 -0.2516563
0.6274115 -0.3270288 -0.246831
0.6374773 -0.317746 -0.2375914
0.6388569 -0.3111335 -0.2502885
0.6335431 -0.3041954 -0.2463092
0.640756 -0.2985748 -0.2419257
0.639245 -0.3009574 -0.2441059
0.6362355 -0.2906171 -0.2531781
0.6342509 -0.293947 -0.247162
0.6246191 -0.2850277 -0.2413482
0.6345497 -0.2737589 -0.2443254
0.6430731 -0.2722328 -0.238838
0.6326383 -0.2624396 -0.2572355
0.6222091 -0.257928 -0.2406213
0.62606 -0.2470948 -0.2470621
0.6354657 -0.2489754 -0.2546824
0.6262298 -0.2406434 -0.2439073
0.6359199 -0.234831 -0.2509512
0.6493639 -0.2377104 -0.2375176
0.6326624 -0.2371833 -0.2433401
0.6318037 -0.2154963 -0.2535332
0.6364813 -0.2112773 -0.2396748
0.6349052 -0.2069723 -0.2563277
0.6320267 -0.2101266 -0.2392197
0.6255218 -0.2041402 -0.2323189
0.6321402 -0.1992276 -0.2489879
0.6299354 -0.1958457 -0.2416303
0.6296107 -0.1877731 -0.243088
0.636641 -0.1845921 -0.2429106
0.6280595 -0.173565 -0.2483662
0.6307018 -0.1758855 -0.2418077
0.6377966 -0.1639168 -0.2393271
0.6361467 -0.1647769 -0.2357005
0.6390478 -0.153872 -0.2498334
0.6273667 -0.1450368 -0.2425848
0.6400794 -0.1488763 -0.2455076
0.6294851 -0.1475618 -0.2411582
0.6313643 -0.143567 -0.2527295
0.6384456 -0.1238983 -0.2595814
0.6356151 -0.1311032 -0.2525733
0.6335623 -0.1151695 -0.2490436
0.6241785 -0.11862 -0.244368
0.6370517 -0.1175115 -0.2493541
0.6336326 -0.1091585 -0.2459781
0.6245914 -0.1033401 -0.2350399
0.6301156 -0.1029602 -0.2547582
0.6352334 -0.08831075 -0.2443602
0.6315018 -0.08930285 -0.2415249
0.6332461 -0.089651 -0.2439651
0.6218292 -0.07662252 -0.2358581
0.6286005 -0.07030039 -0.2405414
0.624752 -0.0685043 -0.2493622
0.6342884 -0.06183966 -0.2440637
0.6346155 -0.06018495 -0.244122
0.6380814 -0.05234227 -0.2464536
0.6208066 -0.05309348 -0.2453229
0.6234285 -0.04412997 -0.2409416
0.6244027 -0.04112887 -0.251593
0.6284357 -0.03732022 -0.2463411
0.6404404 -0.03456407 -0.242942
0.6235107 -0.02221442 -0.2431449
0.624636 -0.03327804 -0.2343757
0.6345055 -0.01565923 -0.2396232
0.6419808 -0.02570171 -0.2472353
0.6324263 -0.01174652 -0.2414463
0.6287848 -0.002142942 -0.2385663
0.6316194 -0.01216253 -0.2480611
0.633145 0.005292153 -0.2399974
0.6412898 0.0132575 -0.2520035
0.6312954 0.01310271 -0.2507233
0.6280164 0.02284557 -0.2426979
0.6207126 0.02016565 -0.2495161
0.6311617 0.02690604 -0.246119
0.6294745 0.03461657 -0.2510633
0.6344072 0.03481889 -0.2477671
0.6336275 0.0364854 -0.2471832
0.633286 0.04344553 -0.2434608
0.6330997 0.05440526 -0.2388794
0.6302705 0.05466294 -0.2445264
0.6357304 0.06774817 -0.2494515
0.6291844 0.05898278 -0.2493194
0.6297951 0.07534868 -0.2412391
0.6300621 0.07521991 -0.2452316
0.6390594 0.08131554 -0.2469895
0.6270756 0.08651017 -0.2425914
0.6387511 0.08775949 -0.2362717
0.6374408 0.0918317 -0.2527228
0.6272172 0.1043001 -0.2474775
0.6230184 0.1084171 -0.2427667
0.6340927 0.1038608 -0.2483418
0.6322703 0.1130444 -0.2412623
0.6245975 0.1238339 -0.2537384
0.6430178 0.1202671 -0.2374711
0.6245475 0.1259249 -0.2530595
0.6366581 0.1293011 -0.2447224
0.6389126 0.1290415 -0.2463792
0.6356344 0.1479919 -0.2424374
0.6314005 0.1413993 -0.2481304
0.6255662 0.1499308 -0.2392367
0.6315469 0.1566667 -0.2492762
0.6297943 0.1503548 -0.2474893
0.636196 0.1660981 -0.2503783
0.6343079 0.1822299 -0.2522564
0.6291413 0.1778892 -0.2463904
0.6396208 0.1895911 -0.2439659
0.6284805 0.1916027 -0.2452453
0.6354911 0.1945018 -0.239665
0.624882 0.1956066 -0.2450271
0.6363679 0.2107769 -0.2405436
0.6356434 0.2058853 -0.2470801
0.62659 0.2141242 -0.2461616
0.6376065 0.2234924 -0.2397747
0.6232333 0.228398 -0.2387215
0.6426639 0.2333088 -0.2390186
0.6327707 0.2292386 -0.2484879
0.6242692 0.2366072 -0.2402289
0.6344143 0.2433776 -0.2404589
0.632443 0.2447103 -0.2421854
0.6298103 0.251738 -0.2406461
0.6286633 0.243925 -0.2417002
0.6356136 0.2604608 -0.2455189
0.6341832 0.2759544 -0.2465948
0.6241867 0.2700824 -0.2407609
0.6270748 0.2843686 -0.2503264
0.632136 0.2819377 -0.250778
0.6297172 0.2893196 -0.2428811
0.6343716 0.2904952 -0.2298377
0.6291122 0.3050877 -0.2413213
0.6272637 0.3094976 -0.2480051
0.6297784 0.3136317 -0.24091
0.6304448 0.3282395 -0.2482365
0.6267487 0.3114605 -0.2394996
0.6326206 0.3337081 -0.2412712
0.6268452 0.3323713 -0.2492059
0.6326208 0.3434124 -0.2418705
0.6328771 0.3523789 -0.2411702
0.6274138 0.3572106 -0.2446501
0.6246619 0.3641863 -0.254179
0.6350446 0.3717929 -0.2483447
0.6333746 0.3733695 -0.2501715
0.6378014 0.3826389 -0.247612
0.627497 0.3834589 -0.252435
0.6252886 0.3907613 -0.2442833
0.6218143 0.4035635 -0.2331094
0.6418843 0.4028772 -0.2485484
0.6339884 0.3978062 -0.2478689
0.6288682 0.4096568 -0.2415036
0.6354018 0.4193543 -0.249407
0.6233679 0.4310493 -0.2558605
0.6345156 0.4341371 -0.2348622
0.6363641 0.4458404 -0.2474523
0.6239507 0.4466643 -0.2476568
0.6390037 0.466517 -0.2420912
0.6343613 0.4619848 -0.245215
0.6284392 0.4725635 -0.2434094
0.6308967 -0.4542006 -0.2418679
0.6344482 -0.4552437 -0.2373096
0.624293 -0.4404941 -0.2376047
0.6255813 -0.440666 -0.244911
0.625572 -0.4397075 -0.2435076
0.6314754 -0.4175746 -0.2346297
0.6344573 -0.4224623 -0.2283385
0.6341578 -0.4130021 -0.2384028
0.6326055 -0.406702 -0.229717
0.6257904 -0.4062581 -0.2331668
0.6300905 -0.3904947 -0.2364943
0.6262491 -0.3871789 -0.2391072
0.6253794 -0.3822855 -0.2341469
0.6269591 -0.3700278 -0.2428148
0.6351452 -0.3646781 -0.2383452
0.6270699 -0.3633149 -0.2306897
0.6317938 -0.3533832 -0.2383064
0.6357343 -0.345728 -0.2445458
0.6365076 -0.3495817 -0.2334798
0.6248113 -0.3424456 -0.2377584
0.642449 -0.3354568 -0.2355948
0.6192987 -0.3363974 -0.2375557
0.6301975 -0.3201119 -0.2396259
0.6319571 -0.3219857 -0.2326539
0.6322248 -0.2954038 -0.235009
0.6233946 -0.3112868 -0.2451868
0.6244985 -0.2943285 -0.2415762
0.6265423 -0.2846347 -0.2408424
0.6323507 -0.2889535 -0.2344962
0.6269268 -0.2725524 -0.239214
0.6367392 -0.2796499 -0.235638
0.6279058 -0.2841972 -0.2385127
0.6237615 -0.2711742 -0.2417243
0.6271803 -0.2567395 -0.2380733
0.6274775 -0.2556756 -0.233241
0.6237674 -0.2539156 -0.2407282
0.6259178 -0.248748 -0.2278663
0.637554 -0.2410717 -0.2368849
0.6353715 -0.2324103 -0.2303898
0.6342673 -0.2296805 -0.239877
0.6380008 -0.2250568 -0.2369548
0.6255957 -0.2138378 -0.2443134
0.6249718 -0.2157289 -0.2342066
0.6341301 -0.2167778 -0.2408818
0.6277643 -0.2048398 -0.2440151
0.6279224 -0.2026633 -0.2447851
0.631359 -0.1973442 -0.2362051
0.62778 -0.1846469 -0.2282134
0.6362165 -0.189465 -0.2344432
0.6335853 -0.1796031 -0.2383806
0.6320128 -0.1791215 -0.2382829
0.632184 -0.1721556 -0.2478615
0.6272988 -0.1688261 -0.2307704
0.6314813 -0.1586868 -0.2431192
0.627072 -0.1628737 -0.2441164
0.6306952 -0.1559859 -0.2365225
0.6213331 -0.1619893 -0.2335122
0.6382414 -0.1449905 -0.2330703
0.624431 -0.130294 -0.2360707
0.6395684 -0.1226374 -0.2354167
0.6237735 -0.1223028 -0.2355067
0.6296881 -0.1277221 -0.2328814
0.6296217 -0.1205453 -0.2419223
0.633509 -0.1158523 -0.2326079
0.6329426 -0.105954 -0.2401486
0.6338766 -0.1148923 -0.2420326
0.6396318 -0.09731626 -0.2340434
0.6289297 -0.09155992 -0.2329778
0.6164982 -0.08730622 -0.2366045
0.6161611 -0.07463709 -0.2407221
0.6347683 -0.07410655 -0.2379253
0.6353599 -0.0722923 -0.2311329
0.6317275 -0.07141318 -0.2395445
0.6312762 -0.07195316 -0.2347298
0.6360886 -0.05906696 -0.2382519
0.619862 -0.05534113 -0.2339248
0.6347827 -0.05713284 -0.2346371
0.6356865 -0.04471922 -0.2302718
0.6268042 -0.04291673 -0.2400191
0.6285931 -0.04116938 -0.2418301
0.630491 -0.0322505 -0.2410072
0.6368372 -0.03067277 -0.2360104
0.6274686 -0.02497792 -0.2464321
0.6299423 -0.01521782 -0.2371007
0.6298231 -0.01403433 -0.2413706
0.627542 -0.00782679 -0.2432798
0.6393502 -0.004051595 -0.2396313
0.6304286 0.004222464 -0.2390778
0.6217093 0.0005522981 -0.2344812
0.6320497 0.002620998 -0.2335594
0.627579 0.01179613 -0.2346488
0.6197843 0.02753693 -0.2412207
0.6428297 0.02348742 -0.2251784
0.636443 0.02898834 -0.2392274
0.624842 0.03045294 -0.2391289
0.6356995 0.04022353 -0.2381121
0.6313004 0.04360488 -0.2398904
0.6352192 0.04998005 -0.2427779
0.6273794 0.04711668 -0.2471839
0.6317366 0.04861455 -0.2399807
0.6199361 0.06005315 -0.2392583
0.6224357 0.06755422 -0.2422754
0.6259379 0.06679089 -0.2392228
0.6323971 0.07774806 -0.2343539
0.6319266 0.07705275 -0.246369
0.6332659 0.08089356 -0.2286436
0.6347755 0.08839526 -0.2419012
0.6340843 0.100167 -0.2296942
0.6250575 0.1046574 -0.2373426
0.6286863 0.107218 -0.2368944
0.6307041 0.1080337 -0.2365455
0.6194266 0.110451 -0.2442537
0.6140205 0.1238854 -0.2333012
0.6233855 0.1209306 -0.2423848
0.6271013 0.1234256 -0.2399753
0.6325128 0.1251075 -0.2393125
0.6336955 0.1330238 -0.233656
0.6275698 0.1283544 -0.244584
0.6250294 0.1500377 -0.2357443
0.6277289 0.1482934 -0.2443606
0.6319507 0.1497371 -0.2354825
0.6261135 0.1615741 -0.2360662
0.6299288 0.1751632 -0.2401915
0.6391074 0.1623847 -0.2394388
0.6244258 0.172911 -0.2320912
0.620504 0.1831266 -0.2342695
0.6279209 0.1791916 -0.2359395
0.6244267 0.1879518 -0.2424084
0.6302394 0.19312 -0.2474352
0.6293293 0.1949686 -0.2377338
0.6127782 0.1968994 -0.2413063
0.6248904 0.2156202 -0.2357206
0.6259948 0.2175966 -0.2383973
0.6301907 0.2137213 -0.2395542
0.6170221 0.2195082 -0.2376301
0.6356647 0.2340646 -0.2394576
0.627975 0.2366857 -0.2428468
0.6254666 0.2366262 -0.2370418
0.6345862 0.2528731 -0.2349677
0.6381802 0.2535126 -0.2378751
0.6307723 0.2628893 -0.2372244
0.625869 0.2579425 -0.2366506
0.6222755 0.2688231 -0.2376675
0.6348255 0.2724735 -0.2444318
0.6212901 0.2779796 -0.2347963
0.622674 0.2856398 -0.23337
0.6229241 0.2859872 -0.2393054
0.6245185 0.2923771 -0.2298698
0.6291136 0.2942499 -0.2389782
0.6231804 0.302761 -0.2394157
0.6188911 0.3160786 -0.2404016
0.6359113 0.3137674 -0.2376954
0.6232243 0.3090871 -0.2372382
0.629567 0.3368767 -0.2395337
0.6257297 0.3357495 -0.2392078
0.6344693 0.3391676 -0.2291475
0.6299139 0.3369946 -0.2406489
0.628634 0.3502204 -0.2331705
0.6325309 0.3520243 -0.2402736
0.6285461 0.359016 -0.2404172
0.6209648 0.3706451 -0.2268552
0.6315933 0.3729618 -0.2413796
0.6216968 0.3819205 -0.2347009
0.6281443 0.3809039 -0.2400934
0.6180745 0.3964958 -0.2417462
0.6278073 0.4050165 -0.2422638
0.6332404 0.4078985 -0.232795
0.6231218 0.4137387 -0.2360227
0.6308787 0.4240808 -0.2373737
0.6183714 0.4213982 -0.2375687
0.6292253 0.4311378 -0.230439
0.6282595 0.4390705 -0.2380948
0.6230716 0.4369615 -0.2373457
0.6215238 0.448475 -0.2309417
0.6223491 0.4551924 -0.2407545
0.6227695 0.4627303 -0.2360463
0.6239152 -0.4499903 -0.2344613
0.6248745 -0.4429666 -0.2308954
0.6270192 -0.4409994 -0.2322646
0.6291116 -0.435955 -0.2326633
0.6267713 -0.4339469 -0.2261995
0.6339018 -0.416462 -0.2359736
0.622871 -0.4210304 -0.229464
0.6261336 -0.4083047 -0.2285665
0.6249914 -0.4024538 -0.2321749
0.6231705 -0.4017165 -0.2345877
0.6285793 -0.3866055 -0.2399638
0.624847 -0.3770185 -0.2353451
0.618499 -0.3806772 -0.2321862
0.6291951 -0.3666073 -0.23052
0.6215814 -0.371347 -0.2295803
0.6272208 -0.3656888 -0.2296969
0.6272583 -0.3598115 -0.2349463
0.6296865 -0.341498 -0.2237801
0.6209114 -0.345908 -0.2274144
0.6209234 -0.3319468 -0.2320159
0.6264186 -0.3339984 -0.2346484
0.6335026 -0.3304665 -0.2260326
0.6335459 -0.3222792 -0.2284056
0.6301349 -0.3131761 -0.234417
0.6228918 -0.3163345 -0.2297195
0.6271916 -0.3029496 -0.2372553
0.6223376 -0.2973982 -0.2291596
0.6318101 -0.2900206 -0.2393738
0.6240075 -0.2889515 -0.237264
0.6202067 -0.2799507 -0.2327345
0.6220357 -0.2736418 -0.2380137
0.6274724 -0.2712125 -0.2274905
0.6289862 -0.2649375 -0.2314054
0.6301126 -0.2589709 -0.2309685
0.6273167 -0.2576892 -0.2381792
0.616681 -0.2556213 -0.2299546
0.6264398 -0.237494 -0.2328755
0.6366764 -0.2413796 -0.2337881
0.6267977 -0.2384971 -0.2274135
0.6212531 -0.2223869 -0.2297632
0.6245129 -0.2329699 -0.2313582
0.634374 -0.214214 -0.2301158
0.6194994 -0.2102322 -0.2270247
0.6275458 -0.2140479 -0.2352963
0.6248426 -0.1991906 -0.2313581
0.6227346 -0.1957782 -0.231901
0.6318537 -0.1960998 -0.2288562
0.6220846 -0.18893 -0.2325284
0.6229175 -0.1856314 -0.2281238
0.6220765 -0.18214 -0.2406913
0.6303487 -0.1864575 -0.2376193
0.6329566 -0.1715512 -0.2282122
0.6276509 -0.1600961 -0.226966
0.6282886 -0.1610374 -0.2349043
0.633732 -0.1573634 -0.2322349
0.6279299 -0.1417158 -0.2389376
0.6284696 -0.1452411 -0.2282752
0.632454 -0.1329001 -0.2340285
0.6205259 -0.1329421 -0.2292595
0.624905 -0.1309605 -0.2330972
0.6194441 -0.1277809 -0.237148
0.6254604 -0.1189884 -0.2291822
0.6226118 -0.1138195 -0.2280135
0.6322795 -0.1040481 -0.2358749
0.6391783 -0.1078061 -0.2273058
0.6213413 -0.1027872 -0.2336705
0.6221235 -0.09746055 -0.2414251
0.6267481 -0.084941 -0.2300753
0.6236613 -0.09062672 -0.2275625
0.6255674 -0.08787636 -0.2268615
0.6171737 -0.08103359 -0.2322
0.6275005 -0.07409069 -0.2340344
0.6365374 -0.07777642 -0.2333645
0.625594 -0.06102484 -0.236045
0.633864 -0.05368844 -0.2304471
0.6197031 -0.04917662 -0.2282149
0.6269855 -0.04427294 -0.2281054
0.6232964 -0.04631351 -0.2290451
0.6222958 -0.03613744 -0.2293033
0.6245986 -0.02880456 -0.2270235
0.6214448 -0.03007727 -0.2409715
0.6158754 -0.03853814 -0.2337776
0.6362885 -0.01569711 -0.222207
0.6334982 -0.02322499 -0.2342981
0.6255212 -0.00839687 -0.228502
0.6313783 -0.003559327 -0.2248174
0.6236665 -0.007787515 -0.2252592
0.6156674 0.001583058 -0.231591
0.6250299 -0.0004847483 -0.2283441
0.6264453 0.01162522 -0.2330308
0.6231604 0.01898553 -0.2320293
0.6234351 0.01764267 -0.2425718
0.6193498 0.02580062 -0.2350854
0.6164249 0.02870191 -0.2310667
0.6253392 0.02939865 -0.223916
0.6158543 0.03625243 -0.2200206
0.627735 0.04409813 -0.2314371
0.6215346 0.04618234 -0.2334052
0.6180839 0.05927266 -0.2373273
0.6228785 0.05458448 -0.2237748
0.6286666 0.05131695 -0.2323829
0.6187666 0.05813372 -0.2331683
0.6282894 0.07091639 -0.2338029
0.6252319 0.0741591 -0.232766
0.625541 0.08045967 -0.2292646
0.6165448 0.08817372 -0.23184
0.616697 0.0849015 -0.2426249
0.6177046 0.09314466 -0.2404946
0.6264378 0.09414747 -0.2288387
0.624943 0.1017588 -0.245649
0.6261903 0.108997 -0.2336966
0.6215963 0.1199149 -0.2334937
0.6280761 0.1176992 -0.2327679
0.6362657 0.1266499 -0.2265233
0.6339409 0.1196684 -0.2379203
0.6229239 0.1307703 -0.2301068
0.6263106 0.124713 -0.2257178
0.6322219 0.1345977 -0.2307187
0.62159 0.1436834 -0.2343763
0.6218785 0.1507277 -0.2266866
0.6350811 0.1423248 -0.2269982
0.6225195 0.1611705 -0.2309338
0.6258336 0.1587078 -0.2285997
0.6262708 0.176973 -0.2269548
0.6146868 0.1737952 -0.2334815
0.6321977 0.1726181 -0.2300941
0.6342566 0.1775855 -0.2284353
0.628583 0.185422 -0.2377474
0.6190492 0.1889838 -0.2207572
0.6257299 0.2026555 -0.2253046
0.6168109 0.2047772 -0.2355298
0.6268616 0.2089073 -0.2360359
0.6219084 0.2189679 -0.2256938
0.6234672 0.215603 -0.2312449
0.6288076 0.226402 -0.231653
0.6210904 0.2238073 -0.2368018
0.6200441 0.2349916 -0.2272516
0.6199001 0.2306883 -0.2354246
0.6220646 0.2384605 -0.2280494
0.6239327 0.2531445 -0.2349089
0.6176951 0.2553643 -0.232218
0.6332976 0.2574051 -0.2331559
0.6191033 0.2632163 -0.228492
0.6261635 0.2768605 -0.2292233
0.6224004 0.2745325 -0.2327913
0.6229251 0.2784294 -0.228416
0.630604 0.2868215 -0.2387156
0.627714 0.2903835 -0.2335324
0.6196434 0.3020243 -0.237921
0.6227891 0.2945998 -0.2321362
0.6239423 0.3037104 -0.2298053
0.6155 0.3142819 -0.2234894
0.624909 0.316434 -0.2308558
0.6142049 0.323513 -0.2282953
0.6210604 0.3298441 -0.2297753
0.6242762 0.3296966 -0.2278904
0.6236127 0.3438594 -0.2385247
0.6207686 0.3414285 -0.2305924
0.624121 0.3508931 -0.2264654
0.6248994 0.3523366 -0.2235835
0.6149702 0.3647838 -0.2291516
0.6268682 0.3706677 -0.2419901
0.6241826 0.3795741 -0.2305504
0.6215369 0.3823385 -0.2275954
0.6254056 0.3834236 -0.2390055
0.6292838 0.3831786 -0.2280333
0.622509 0.397698 -0.2259627
0.6265957 0.4048657 -0.2298515
0.6139104 0.4148296 -0.2266843
0.6200239 0.424235 -0.234322
0.6257699 0.4281325 -0.2407645
0.6253265 0.4329983 -0.2343932
0.6222322 0.445655 -0.23425
0.6311476 0.4526318 -0.2311582
0.6297125 0.4454104 -0.2375575
0.6211696 0.4594705 -0.2327426
0.6328936 -0.4534002 -0.2299679
0.6228572 -0.4468038 -0.2300671
0.6259812 -0.4376851 -0.2241203
0.6191568 -0.4334221 -0.2218109
0.6255395 -0.4293857 -0.2345417
0.6223707 -0.4185954 -0.2290628
0.6270163 -0.4165984 -0.2289816
0.6262597 -0.4112057 -0.2251309
0.6201535 -0.4122615 -0.2180976
0.6320273 -0.3937289 -0.2292841
0.6229268 -0.393052 -0.225203
0.6309443 -0.3782427 -0.2251057
0.6274619 -0.3824611 -0.2232167
0.6270931 -0.3754976 -0.2288392
0.633329 -0.3580117 -0.2264869
0.6355377 -0.3565351 -0.2368279
0.6350566 -0.3505987 -0.2267971
0.6277977 -0.3468297 -0.223729
0.6245031 -0.3413504 -0.2300064
0.6284781 -0.3383542 -0.224119
0.6358421 -0.3252755 -0.2296742
0.6220914 -0.3251776 -0.2210457
0.6303717 -0.3287445 -0.2329471
0.6266369 -0.3137107 -0.2230729
0.6256088 -0.3030823 -0.2261774
0.6212221 -0.2978641 -0.2306993
0.6244968 -0.2941652 -0.2256294
0.6357847 -0.2956522 -0.2286234
0.6230611 -0.2851018 -0.2332898
0.6227156 -0.2824384 -0.2246237
0.6282728 -0.2792903 -0.2382341
0.6209327 -0.2747906 -0.2360545
0.6279529 -0.2659107 -0.2259463
0.6264074 -0.2606645 -0.2224045
0.6203594 -0.2486118 -0.2238948
0.6303805 -0.2471189 -0.2215108
0.6334875 -0.2385658 -0.2256535
0.6384698 -0.2445924 -0.2290894
0.610706 -0.2324554 -0.2299668
0.6243187 -0.2350335 -0.2241433
0.616816 -0.2251355 -0.2344039
0.6315498 -0.220511 -0.223416
0.6248887 -0.2094408 -0.2324681
0.621657 -0.202468 -0.2341743
0.6275417 -0.2023122 -0.2330241
0.629979 -0.2007861 -0.2359958
0.6233513 -0.1958772 -0.2273028
0.6297013 -0.1807417 -0.2232606
0.6149351 -0.1899925 -0.2271629
0.6274209 -0.1759172 -0.221982
0.6202965 -0.1761042 -0.2252337
0.6323634 -0.1731297 -0.2283035
0.638714 -0.1578844 -0.2238744
0.6236524 -0.1615028 -0.2334858
0.6115717 -0.1521074 -0.2243108
0.6262001 -0.1493932 -0.2300079
0.6277965 -0.144776 -0.2358866
0.6249951 -0.1436279 -0.2236499
0.6218112 -0.1362554 -0.2206009
0.6353055 -0.125334 -0.229842
0.6272302 -0.1249983 -0.2309853
0.62455 -0.1156307 -0.225006
0.6336577 -0.1196625 -0.2285896
0.6260371 -0.1093885 -0.2220948
0.6244937 -0.1033521 -0.2290078
0.6343627 -0.102832 -0.2245331
0.6218907 -0.09185184 -0.2244547
0.6302679 -0.08389377 -0.2371431
0.6321514 -0.08803865 -0.2259019
0.6237953 -0.07896502 -0.2339349
0.6171128 -0.08329643 -0.2317534
0.6285666 -0.07356643 -0.2232264
0.6129881 -0.06939875 -0.2274013
0.6307155 -0.06064259 -0.2323255
0.6338956 -0.05944191 -0.2214414
0.6285987 -0.054368 -0.2378511
0.626701 -0.05201542 -0.2247154
0.6263545 -0.04951446 -0.224285
0.6240225 -0.04287149 -0.2325971
0.6280595 -0.0420104 -0.2321992
0.6201283 -0.0404521 -0.2267106
0.6296858 -0.02379934 -0.228447
0.6188568 -0.01022665 -0.2285233
0.6276358 -0.01721739 -0.2350974
0.6277612 -0.02301042 -0.229797
0.6168029 -0.004175826 -0.2316546
0.6235453 -0.006096893 -0.2262252
0.6305127 0.002493042 -0.2331547
0.6239722 0.00459436 -0.2175671
0.6214676 0.01732475 -0.2260863
0.6307386 0.007676083 -0.2304972
0.6311091 0.02637893 -0.2252025
0.6259633 0.01588938 -0.2264335
0.628298 0.02756435 -0.2295385
0.6289585 0.03178076 -0.22339
0.6350109 0.03419122 -0.225738
0.6279997 0.04094099 -0.2304492
0.6222278 0.04236972 -0.2168949
0.6268848 0.04957253 -0.2364693
0.6310165 0.05519081 -0.2369539
0.619185 0.05468861 -0.2164023
0.6284766 0.06129577 -0.2286991
0.6306913 0.06413992 -0.2298061
0.6298272 0.06632459 -0.2238965
0.6224616 0.07216487 -0.226842
0.616601 0.0875322 -0.22369
0.6265603 0.07955068 -0.2250303
0.6298311 0.08564241 -0.2267789
0.6304136 0.1015981 -0.2300229
0.6239158 0.1076396 -0.2361639
0.6267105 0.1118415 -0.2267224
0.6280187 0.1058997 -0.2342818
0.6201882 0.1165469 -0.2311032
0.622933 0.1246438 -0.222264
0.6244204 0.1287975 -0.2331652
0.6210058 0.1359726 -0.2282988
0.6170973 0.1354555 -0.2355935
0.6373942 0.1415963 -0.2288063
0.613339 0.1385499 -0.2219761
0.6260943 0.1466845 -0.2237204
0.6283989 0.1463114 -0.230104
0.6244549 0.1605764 -0.2279949
0.6333972 0.1665848 -0.2264167
0.6298218 0.174523 -0.2297451
0.62555 0.1757366 -0.2282049
0.6207902 0.1759202 -0.2247526
0.6362062 0.175243 -0.2237483
0.6225321 0.1908403 -0.2251042
0.6289098 0.196639 -0.2344901
0.6282828 0.1923959 -0.2263136
0.6218984 0.1952696 -0.230084
0.6317491 0.2025167 -0.229202
0.6271984 0.2098137 -0.2347428
0.6200371 0.2154647 -0.224206
0.6223983 0.2184105 -0.2348385
0.6268028 0.2230768 -0.2228754
0.625905 0.234951 -0.2209356
0.6261523 0.2454543 -0.2278102
0.6342287 0.2368296 -0.2333923
0.6316337 0.2500728 -0.2190398
0.6234275 0.2471578 -0.2336472
0.6167573 0.256708 -0.24112
0.620725 0.2675411 -0.2293211
0.6295639 0.2719184 -0.2271298
0.625388 0.2669389 -0.2304211
0.6247852 0.2864006 -0.2335855
0.6260021 0.281201 -0.2278438
0.6287303 0.2927388 -0.2299952
0.6232879 0.2898425 -0.2263094
0.6297355 0.3026823 -0.2307114
0.6323303 0.3033879 -0.2358734
0.6251944 0.3177699 -0.2281881
0.6247723 0.3239485 -0.2222422
0.6244951 0.3232917 -0.2315476
0.629139 0.3289742 -0.2310793
0.6200162 0.3242206 -0.2310378
0.6234247 0.3479174 -0.2236799
0.6234043 0.3527011 -0.2312072
0.6206375 0.34721 -0.2246139
0.6201283 0.3644754 -0.2306643
0.6300681 0.3661292 -0.2267076
0.6296908 0.3772924 -0.2302918
0.6164159 0.3760267 -0.2243627
0.6209619 0.3877166 -0.2296267
0.6176817 0.386028 -0.2311493
0.6246442 0.3981389 -0.2292311
0.6254368 0.3941793 -0.2327632
0.6268121 0.4088655 -0.232371
0.6266571 0.4035071 -0.2295927
0.6293696 0.4128504 -0.2278035
0.6255686 0.4272348 -0.232061
0.6274287 0.4348001 -0.2232216
0.6352824 0.4363119 -0.233587
0.6280372 0.4516908 -0.2242643
0.6278378 0.4569533 -0.2221122
0.625814 0.4512961 -0.2368868
0.625369 -0.4581977 -0.2248062
0.6418531 -0.4528821 -0.2282372
0.6369023 -0.4378221 -0.2278421
0.6341055 -0.4415794 -0.2153793
0.6367548 -0.4383248 -0.2182818
0.63069 -0.4300594 -0.2263246
0.6242803 -0.4096865 -0.2366238
0.637804 -0.4159395 -0.2163324
0.6255168 -0.4136029 -0.2246343
0.6366684 -0.4013634 -0.2183944
0.6349712 -0.3972259 -0.2312177
0.626977 -0.3902529 -0.2281599
0.628693 -0.373165 -0.2246179
0.6393234 -0.3754207 -0.2263315
0.6395909 -0.3685396 -0.2194064
0.6317285 -0.3597322 -0.2148806
0.6292096 -0.3579838 -0.2209782
0.6257651 -0.345361 -0.2154125
0.6286716 -0.3446444 -0.2305123
0.638338 -0.344964 -0.2220349
0.6358009 -0.331239 -0.2232649
0.6270978 -0.3338117 -0.2181049
0.6319098 -0.3221934 -0.2328089
0.626048 -0.3182607 -0.2219417
0.6313224 -0.3106273 -0.2291575
0.6322969 -0.3043647 -0.2243578
0.6310493 -0.291728 -0.2288276
0.6387077 -0.2883468 -0.2231572
0.6266909 -0.2800947 -0.2197451
0.6295123 -0.2773032 -0.2247948
0.6286095 -0.2778669 -0.2243181
0.6237102 -0.2688058 -0.2228636
0.6291836 -0.2772696 -0.2164674
0.6360766 -0.2603587 -0.2234086
0.6256191 -0.2562663 -0.2283136
0.6313046 -0.2577184 -0.2280266
0.6267025 -0.2435396 -0.2211479
0.6336887 -0.2328241 -0.2237552
0.6290316 -0.2354957 -0.2256705
0.6270733 -0.2207254 -0.2249084
0.624135 -0.2258881 -0.2262002
0.6374547 -0.2162887 -0.2179099
0.624994 -0.212572 -0.2305853
0.6338527 -0.2092647 -0.2264595
0.6225005 -0.2089287 -0.2291293
0.6358132 -0.1968341 -0.2320122
0.6329585 -0.1925956 -0.2237013
0.6301376 -0.1872118 -0.2161913
0.6272521 -0.1807401 -0.2214199
0.6194065 -0.1757029 -0.223009
0.6193694 -0.1809262 -0.2170795
0.6266505 -0.1657285 -0.2252593
0.6378453 -0.1634926 -0.2250958
0.6285763 -0.1568542 -0.223138
0.6361277 -0.1596994 -0.2129579
0.633804 -0.1495042 -0.2295375
0.6346682 -0.142847 -0.2225436
0.6327596 -0.1454507 -0.2394258
0.6312095 -0.136926 -0.2248846
0.6276495 -0.1280906 -0.2175119
0.6251422 -0.121607 -0.2268072
0.6288826 -0.1133113 -0.2267497
0.6377035 -0.1050884 -0.2253825
0.6324137 -0.1067216 -0.2261035
0.6346056 -0.104384 -0.2216168
0.635786 -0.0993944 -0.2217193
0.629612 -0.09640083 -0.2242702
0.6315821 -0.09329883 -0.2329314
0.625229 -0.08874865 -0.2315561
0.6235537 -0.08600076 -0.2300943
0.6195604 -0.06617758 -0.224192
0.6390989 -0.07265987 -0.2254691
0.6329237 -0.05876403 -0.2168825
0.6254742 -0.05714786 -0.2246613
0.6309683 -0.05882809 -0.2207579
0.626591 -0.05137945 -0.223426
0.6340707 -0.04581091 -0.2246889
0.6320983 -0.0482532 -0.2325258
0.6282842 -0.04382877 -0.23046
0.6203659 -0.03091284 -0.2174409
0.6333113 -0.03215721 -0.2326762
0.6272762 -0.03157258 -0.2294303
0.6318287 -0.02810539 -0.2275248
0.6303511 -0.0203832 -0.2240763
0.6302228 -0.006883508 -0.2273275
0.626122 -0.01408861 -0.2157774
0.6326118 -0.004367277 -0.2184236
0.6329177 -0.003426755 -0.222094
0.629795 0.009623884 -0.2273019
0.6353802 0.01123266 -0.2247605
0.6242964 0.01708358 -0.22993
0.6351187 0.01379213 -0.2381521
0.6297582 0.01924415 -0.2322815
0.6269301 0.0320971 -0.2250426
0.6282365 0.03298301 -0.2236387
0.6251014 0.03696821 -0.2189279
0.631983 0.04516678 -0.2304425
0.6338209 0.04455245 -0.2282313
