# .PCD v.7 - Point Cloud Data file format
FIELDS x y z
SIZE 4 4 4
TYPE F F F
COUNT 1 1 1
WIDTH 1629
HEIGHT 1
VIEWPOINT 0 0 0 1 0 0 0
POINTS 1629
DATA ascii
-0.4323051 0.06781256 2.144885
-0.4236659 0.06778654 2.146911
-0.4136004 0.06752659 2.141409
-0.4055789 0.06759649 2.14635
-0.3969382 0.06756395 2.147957
-0.3726662 0.06481152 2.062461
-0.3779558 0.06719214 2.141143
-0.3587216 0.06522211 2.080397
-0.3463391 0.06443518 2.057436
-0.3404056 0.06483918 2.07264
-0.3485278 0.06800542 2.176691
-0.3135971 0.06271942 2.00865
-0.3120258 0.06400529 2.052094
-0.3087995 0.06501043 2.086501
-0.2924383 0.0632299 2.03093
-0.2885157 0.0641146 2.061366
-0.2838003 0.06486865 2.087569
-0.2743729 0.06455833 2.079286
-0.2685313 0.0650985 2.098495
-0.2867473 0.07168683 2.313865
-0.2499395 0.06450053 2.082349
-0.2390117 0.06373645 2.059062
-0.2284816 0.06302939 2.03754
-0.216533 0.06186657 2.001106
-0.2117998 0.06275549 2.03136
-0.1809212 0.05566806 1.801787
-0.1779703 0.05695049 1.844678
-0.1666512 0.05555041 1.800091
-0.1578808 0.05491507 1.780362
-0.1493482 0.05430844 1.761503
-0.1458075 0.05554572 1.802807
-0.1430978 0.05723911 1.859012
-0.1299529 0.05471702 1.777405
-0.123345 0.05482001 1.781542
-0.1187486 0.05588168 1.817007
-0.1112268 0.05561341 1.808923
-0.1063192 0.05670355 1.845271
-0.1000002 0.05714298 1.860285
-0.09287705 0.0571551 1.861263
-0.08950295 0.05966863 1.944182
-0.0791477 0.05756196 1.875633
-0.07380524 0.05904419 1.924691
-0.06937865 0.06166991 2.011232
-0.06162839 0.06162839 2.010263
-0.05218943 0.05964507 1.945534
-0.04415292 0.05887057 1.920408
-0.03955695 0.06329111 2.065732
-0.03054791 0.06109582 1.993888
-0.02472916 0.06594441 2.153207
-0.01682956 0.06731822 2.198429
-0.008614443 0.06891555 2.250943
-0 0.06915684 2.25889
0.008519204 0.06815363 2.22593
0.01693409 0.06773635 2.212156
0.02542953 0.06781208 2.214515
0.03304285 0.0660857 2.157672
0.04237373 0.06779797 2.213647
0.04946382 0.06595176 2.152783
0.058768 0.06716343 2.192219
0.06719549 0.06719549 2.192894
0.07534929 0.06697715 2.185305
0.08315871 0.06652696 2.170065
0.09529167 0.06930304 2.260552
0.1037275 0.06915165 2.254992
0.2203847 0.1356213 4.432286
0.2358508 0.1347719 4.403083
0.2546638 0.1358207 4.435952
0.2729978 0.1364989 4.456562
0.2832214 0.1332806 4.349555
0.3062064 0.1360917 4.439732
0.3206832 0.1350245 4.402929
0.3420386 0.1368154 4.459453
0.3488433 0.1328927 4.329187
0.3718471 0.1352171 4.402892
0.3728686 0.1296934 4.220329
0.3528345 0.1176115 3.823985
0.3829869 0.1225558 3.982918
0.3726238 0.1146535 3.723109
0.4134389 0.1225004 3.976199
0.4340122 0.1240035 4.022488
0.4921194 0.1357571 4.401842
0.5100641 0.1360171 4.407172
0.5328163 0.137501 4.452105
0.5380293 0.1345073 4.351608
0.5640967 0.1367507 4.420891
0.5728374 0.1347852 4.353633
0.59294 0.1355291 4.374033
0.6112194 0.1358265 4.379837
0.6205883 0.1341812 4.322754
0.6507355 0.1369969 4.409612
0.674399 0.1383383 4.44864
0.6818467 0.1363693 4.380842
0.7064117 0.1378364 4.423603
0.6900553 0.1314391 4.213356
0.7371477 0.1371438 4.391999
0.7302804 0.1327783 4.247134
0.7575468 0.134675 4.30308
0.7466811 0.1298576 4.143909
0.7177203 0.1221652 3.893088
0.7341327 0.1223555 3.894378
0.7251099 0.1183853 3.762891
0.7289451 0.1166312 3.702174
nan nan nan
0.7406778 0.1139504 3.60711
0.7882727 0.1189846 3.761729
0.1262281 0.01870046 0.5807014
0.8463678 0.123108 3.881267
0.7060561 0.1008651 3.173182
nan nan nan
nan nan nan
nan nan nan
nan nan nan
0.8358369 0.1096179 3.422009
0.7481934 0.09654108 3.007257
nan nan nan
nan nan nan
0.3745354 0.04609666 1.422234
0.3774472 0.04575117 1.408848
0.3836963 0.04581448 1.408119
0.3905337 0.04594514 1.409416
0.3973296 0.04606719 1.41038
0.4029135 0.04604726 1.406904
0.4084983 0.04602798 1.4034
0.4141702 0.04601891 1.400159
0.4167962 0.04567629 1.386658
0.4272944 0.04619399 1.399427
0.4311209 0.04598623 1.389966
0.4385371 0.04616181 1.392136
0.4451768 0.04625214 1.391643
0.4498833 0.04614187 1.385013
0.4576958 0.04634895 1.387927
0.4610537 0.04610538 1.377185
0.4664958 0.04607366 1.37279
0.4744039 0.0462833 1.375579
0.4840758 0.0466579 1.383215
0.4894994 0.04661899 1.378408
0.5197578 0.04891838 1.443082
-0.9717048 0.09717048 2.520337
-0.93976 0.09503191 2.47181
-0.9267927 0.09478562 2.472451
-0.8890496 0.09197065 2.405453
-0.8805922 0.09215501 2.416988
-0.8396652 0.08890574 2.337724
-0.8554724 0.09165776 2.416905
-0.8439202 0.09150942 2.419334
-0.8162254 0.08958572 2.374365
-0.7783855 0.08648728 2.297678
-0.7928215 0.08919243 2.375824
-0.7722932 0.08798278 2.349197
-0.7639446 0.08814745 2.359286
-0.7513242 0.08781712 2.35596
-0.7304239 0.08649758 2.325774
-0.7175613 0.08610735 2.320505
-0.7148818 0.08694509 2.348432
-0.6946719 0.08564448 2.318203
-0.6863735 0.08579669 2.32734
-0.6734801 0.08537072 2.320614
-0.6617805 0.08508608 2.317623
-0.6484334 0.08457828 2.308395
-0.6304452 0.08344128 2.281735
-0.6190202 0.08315197 2.278214
-0.6018742 0.08207376 2.252816
-0.6038019 0.08360334 2.299305
-0.5789824 0.0814194 2.243041
-0.5830358 0.08329084 2.298975
-0.5693442 0.08264674 2.28511
-0.5272366 0.07778901 2.153817
-0.5270416 0.07905624 2.19277
-0.5193131 0.07921726 2.200871
-0.5106648 0.07924109 2.205076
-0.4923343 0.077737 2.166404
-0.4885528 0.07851743 2.19163
-0.4730627 0.07741025 2.163808
-0.4653372 0.0775562 2.171089
-0.4487886 0.0762094 2.136243
-0.4406902 0.07627331 2.141034
-0.4361209 0.07696252 2.163433
-0.4245257 0.07641463 2.150811
-0.42296 0.07768653 2.189642
-0.4020076 0.07537641 2.126878
-0.3883137 0.07435793 2.100575
-0.3804671 0.07443923 2.105413
-0.3635858 0.07271717 2.05885
-0.3632374 0.07429857 2.106274
-0.339216 0.07099871 2.01445
-0.3340904 0.0715908 2.033538
-0.3299867 0.07243611 2.059843
-0.3264915 0.07346059 2.091268
-0.3183452 0.07346427 2.093443
-0.3033606 0.07184855 2.049116
-0.295964 0.07199125 2.055122
-0.2919452 0.07298629 2.085568
-0.2678415 0.06887353 1.969122
-0.2797134 0.07404178 2.11954
-0.273328 0.07454401 2.135743
-0.2901298 0.08159902 2.340812
-0.2489827 0.07228528 2.073906
-0.2405693 0.07217078 2.07213
-0.2240028 0.06951812 1.996966
-0.2251645 0.0723743 2.080909
-0.208198 0.06939933 1.996215
-0.2019541 0.06990717 2.012179
-0.1812737 0.06525854 1.878751
-0.172057 0.06452138 1.85848
-0.1744128 0.06824847 1.967593
-0.1713803 0.07011014 2.022651
-0.1618248 0.06935348 2.00171
-0.1538588 0.06923648 1.999276
-0.1416325 0.06708907 1.937797
-0.1387628 0.06938139 2.005266
-0.1303422 0.06900471 1.995132
-0.1093 0.06148125 1.777037
-0.1095007 0.06570043 1.900459
-0.09872168 0.06346394 1.835992
-0.09332187 0.06460746 1.869865
-0.09221495 0.06916121 2.003047
-0.08342288 0.06825509 1.977178
-0.07447281 0.06702553 1.941824
-0.06773131 0.06773131 1.962821
-0.0585655 0.06588619 1.909411
-0.04871248 0.06263034 1.8148
-0.0461704 0.0692556 2.00829
-0.03737003 0.06726605 1.950513
-0.03290112 0.07402753 2.147951
-0.02439287 0.07317862 2.123357
-0.01733717 0.07801726 2.264644
-0.008568584 0.07711726 2.238464
-0 0.0778487 2.25983
0.008572069 0.07714862 2.239379
0.01720011 0.07740049 2.24665
0.0256857 0.07705709 2.236504
0.03418353 0.07691295 2.23212
0.04268454 0.07683217 2.229534
0.05096588 0.07644881 2.218073
0.05943085 0.07641111 2.216643
0.06730247 0.07571527 2.195975
0.07535461 0.07535461 2.185033
0.08372235 0.07535012 2.184425
0.09522174 0.07790869 2.258443
0.1031212 0.0773409 2.241305
0.213495 0.1478042 4.292523
0.2323524 0.1493694 4.336751
0.2520662 0.1512397 4.389725
0.2690733 0.1513537 4.391468
0.2908531 0.1539811 4.466189
0.3047422 0.1523711 4.417573
0.3147168 0.1490764 4.319942
0.3357809 0.1511014 4.376786
0.3475738 0.1489602 4.312532
0.361325 0.1478148 4.277124
0.3685052 0.1441977 4.169972
0.3730929 0.1399098 4.043391
0.3823751 0.137655 3.975736
0.3792847 0.1312909 3.789102
0.4409657 0.1469886 4.24084
0.4448793 0.1429969 4.122655
0.4917176 0.152602 4.397342
0.5214375 0.1564312 4.504777
0.536148 0.1556558 4.479096
0.5417674 0.1523721 4.38102
0.5660666 0.1543818 4.435453
0.5779236 0.1529798 4.391479
0.5871013 0.1509689 4.329947
0.6071467 0.1517867 4.349668
0.6217191 0.1512289 4.329743
0.6434584 0.152398 4.359252
0.6636903 0.1531593 4.376892
0.6831193 0.1537018 4.388106
0.6932744 0.1521822 4.340196
0.7128311 0.1527495 4.351867
0.7164081 0.1499459 4.267188
0.7396225 0.1512864 4.300682
0.7447389 0.1489478 4.229213
0.7700521 0.1506624 4.273037
0.7743662 0.1482829 4.200333
0.6702943 0.1256802 3.553949
0.6824108 0.1253408 3.539847
0.6672545 0.1201058 3.387132
0.7262886 0.1281686 3.610485
0.7805062 0.1350876 3.800836
nan nan nan
0.7802681 0.1300447 3.648208
0.7152002 0.1170328 3.277231
nan nan nan
0.08238076 0.01300749 0.3529384
nan nan nan
nan nan nan
0.7652777 0.1147917 3.189147
nan nan nan
0.9861881 0.1431563 3.966553
0.7890722 0.1127246 3.115456
nan nan nan
0.3781183 0.05235485 1.435601
0.4222991 0.05758625 1.577241
0.3959914 0.05319288 1.453253
0.4047202 0.05356592 1.460671
0.4039367 0.05268741 1.433669
0.4122062 0.05299794 1.439259
0.4411172 0.05591626 1.515999
0.4319035 0.05398793 1.460232
0.4354009 0.05367957 1.448701
0.4329964 0.05266173 1.417894
0.4473995 0.05368793 1.442513
0.4576862 0.05419969 1.453052
0.4501118 0.05261048 1.406833
0.4643347 0.05357708 1.4295
0.4795539 0.05463272 1.454377
0.4954173 0.05573445 1.480296
0.4902173 0.05446858 1.442798
0.5256894 0.05769763 1.525122
0.5300383 0.05747404 1.515234
0.5416371 0.05803254 1.526037
0.5411632 0.05729964 1.502579
-0.9859183 0.1095465 2.556578
-1.00227 0.1126146 2.636177
-0.9234901 0.1049421 2.462843
-0.9375924 0.1077692 2.536645
-0.8687384 0.1010161 2.383574
-0.8717939 0.102564 2.42688
-0.8540523 0.1016729 2.41215
-0.8513215 0.1025689 2.439923
-0.8315251 0.1014055 2.418368
-0.8412217 0.1038545 2.483353
-0.7763782 0.09704727 2.325627
-0.7596736 0.09616122 2.309947
-0.7370897 0.09449867 2.275285
-0.7316654 0.09502148 2.293352
-0.774998 0.1019734 2.467696
-0.7384543 0.09846058 2.387723
-0.7133707 0.09640145 2.342777
-0.7032915 0.09634131 2.346448
-0.6974445 0.09686729 2.3644
-0.6858262 0.09659524 2.362705
-0.6709409 0.09584869 2.34921
-0.6617247 0.09590213 2.355296
-0.6522645 0.09592125 2.360454
-0.6287996 0.09385068 2.313755
-0.5920666 0.08970705 2.215317
-0.5969269 0.0918349 2.27238
-0.5886042 0.09196941 2.279895
-0.5843667 0.09275662 2.303633
-0.5663952 0.09135406 2.272611
-0.5413638 0.08874816 2.211251
-0.5221315 0.08702191 2.171663
-0.5155334 0.08737854 2.184198
-0.4998294 0.08617748 2.157483
-0.5020025 0.08807062 2.2086
-0.4833859 0.0863189 2.167771
-0.486917 0.08853035 2.226944
-0.4711719 0.08725406 2.197895
-0.4499565 0.08489746 2.141289
-0.4467907 0.08592128 2.170284
-0.4278881 0.08389962 2.121844
-0.4250374 0.08500749 2.152879
-0.4109139 0.08385997 2.126424
-0.3996795 0.08326656 2.113972
-0.3926532 0.08354323 2.123655
-0.3851976 0.08373862 2.131211
-0.3732226 0.08293834 2.113209
-0.3602294 0.08187032 2.088229
-0.3677577 0.08552505 2.184384
-0.3479408 0.08284306 2.117808
-0.3377433 0.08237642 2.108026
-0.3287679 0.08219197 2.105426
-0.3171426 0.08131862 2.084996
-0.3081417 0.08108991 2.081099
-0.3026499 0.08179727 2.101312
-0.2951257 0.08197936 2.107919
-0.2937811 0.08393747 2.160433
-0.2771579 0.08151701 2.099581
-0.2870254 0.08697738 2.242827
-0.2898565 0.09058014 2.338055
-0.2784392 0.08981911 2.320089
-0.2425142 0.08083806 2.088496
-0.2310882 0.07968558 2.060024
-0.2190482 0.07823151 2.023611
-0.2121484 0.07857347 2.033847
-0.2039702 0.07845007 2.031921
-0.1960809 0.07843236 2.032694
-0.1886721 0.07861336 2.038598
-0.1740256 0.07566329 1.962758
-0.1739297 0.07905895 2.05245
-0.1625713 0.07741488 2.010548
-0.155291 0.0776455 2.017543
-0.1467722 0.07724854 2.008088
-0.1349634 0.07497968 1.949615
-0.1244411 0.07320067 1.903863
-0.1150952 0.07193449 1.871452
-0.1094572 0.07297147 1.89928
-0.1052074 0.07514814 1.956935
-0.09644231 0.0741864 1.932348
-0.09273837 0.07728197 2.01404
-0.08293094 0.07539177 1.96502
-0.07546648 0.07546648 1.967456
-0.06470384 0.07189316 1.874164
-0.05699921 0.07124902 1.857632
-0.04992 0.0713143 1.859665
-0.04475201 0.07458667 1.945817
-0.03662364 0.07324728 1.91091
-0.02929318 0.07323295 1.910731
-0.02393477 0.07978255 2.082811
-0.01725257 0.08626283 2.253047
-0.008618044 0.08618045 2.250962
-0 0.08635433 2.255553
0.008561125 0.08561125 2.236019
0.01708529 0.08542645 2.231091
0.02567725 0.08559083 2.235279
0.0342141 0.08553524 2.23364
0.04213025 0.08426051 2.199954
0.05085836 0.08476392 2.212887
0.05931355 0.08473366 2.211762
0.06695455 0.08369319 2.184087
0.07548608 0.08387341 2.188387
0.08329901 0.08329901 2.172846
0.09300487 0.08454988 2.205113
0.1021531 0.08512757 2.219668
0.2149023 0.1653094 4.319948
0.2302063 0.1644331 4.295646
0.2555048 0.1703365 4.448787
0.27023 0.1688937 4.409423
0.282632 0.1662541 4.338667
0.3044319 0.1691288 4.412088
0.3150961 0.1658401 4.324204
0.3312238 0.1656119 4.316272
0.3530035 0.1680969 4.379105
0.3577696 0.1626226 4.23398
0.3642782 0.1583818 4.121085
0.3755555 0.1564815 4.069241
0.3796992 0.1518797 3.946944
0.3961274 0.1523567 3.956978
nan nan nan
0.4549037 0.1624656 4.21485
0.4984879 0.1718924 4.457028
0.5026957 0.1675652 4.341458
0.5182586 0.1671802 4.328268
0.5548084 0.1733776 4.485718
0.5545614 0.1680489 4.344064
0.5825793 0.1713468 4.425921
0.588666 0.1681903 4.340505
0.6162857 0.1711905 4.41428
0.6262289 0.1692511 4.360209
0.6479594 0.1705156 4.38879
0.6619263 0.1697247 4.364195
0.6834629 0.1708657 4.389274
0.6917547 0.1687207 4.329622
0.7274545 0.1732035 4.440312
0.7303776 0.1698553 4.34957
0.729431 0.1657798 4.240235
0.731303 0.1625118 4.151696
0.7503234 0.1631138 4.162251
0.6521054 0.1387458 3.534482
0.6544667 0.1363472 3.468903
0.7191426 0.1467638 3.730076
0.7212649 0.144253 3.661317
0.729179 0.1429763 3.623991
0.7204446 0.138547 3.506588
0.7494908 0.1414134 3.574379
0.7780569 0.1440846 3.636911
0.800185 0.1454882 3.66708
0.8288879 0.1480157 3.7254
nan nan nan
0.6580163 0.1134511 2.843921
0.7979057 0.1352383 3.386833
0.8522497 0.1420416 3.551958
0.8647243 0.1417581 3.538904
0.900713 0.1452763 3.620808
0.8993874 0.1427599 3.551665
0.9111301 0.1423641 3.535455
0.9178686 0.1412105 3.500312
0.9275135 0.1405323 3.476952
0.9080538 0.1355304 3.346407
0.9891101 0.1454574 3.58538
nan nan nan
0.2497687 0.03568125 0.8673255
0.3524761 0.04964452 1.208718
0.4529094 0.06290409 1.531379
0.4663044 0.06387731 1.5519
0.4769954 0.06445883 1.562694
0.470953 0.06279374 1.518624
0.4634703 0.06098293 1.471136
0.4999867 0.06493334 1.563537
0.4677559 0.0599687 1.439697
0.5051213 0.06393941 1.532081
0.5191236 0.06489045 1.551222
0.5218419 0.06442492 1.53616
0.54994 0.06706586 1.595532
0.5346019 0.06440987 1.527921
0.5464637 0.06505521 1.539275
0.5466678 0.06431386 1.51752
-1.047368 0.1280116 2.715706
-1.122357 0.1387182 2.952398
-0.9945263 0.1243158 2.652272
-0.9650961 0.1220236 2.610512
-0.9344701 0.1195252 2.563931
-0.919137 0.1189471 2.558442
-0.8905511 0.1166198 2.514891
-0.8720419 0.1155718 2.498763
-0.8139568 0.1091893 2.366253
-0.7948487 0.1079424 2.345058
-0.8175319 0.1124106 2.448715
-0.7756107 0.1079964 2.357887
-0.7715209 0.1088042 2.38134
-0.7647008 0.109243 2.396652
-0.749708 0.1085104 2.386037
-0.7308313 0.1071886 2.36221
-0.7238075 0.107593 2.376474
-0.7107886 0.1071051 2.370842
-0.7033723 0.1074596 2.383852
-0.6935281 0.107448 2.388629
-0.6886991 0.1082241 2.410951
-0.6602451 0.1052565 2.349286
-0.6436909 0.1041265 2.328569
-0.6354038 0.10432 2.33747
-0.5974664 0.09957773 2.234954
-0.5924479 0.1002604 2.254569
-0.5693247 0.09785268 2.204186
-0.5612224 0.09799121 2.211287
-0.550166 0.09761008 2.206514
-0.5371687 0.09686649 2.193385
-0.5299954 0.09716583 2.203902
-0.5190086 0.0967643 2.198362
-0.4954349 0.09396178 2.137798
-0.4811404 0.09285166 2.115732
-0.4976398 0.09775068 2.231397
-0.478998 0.09579961 2.189919
-0.4718606 0.09611975 2.200504
-0.4541246 0.09425227 2.160624
-0.4338073 0.09176693 2.106295
-0.4330929 0.09341219 2.147197
-0.4450653 0.09791438 2.254242
-0.409922 0.0920233 2.12068
-0.3991023 0.09146094 2.110325
-0.3863514 0.09042266 2.088818
-0.3842131 0.09187704 2.125158
-0.3712567 0.09075163 2.10145
-0.3675383 0.09188457 2.130259
-0.3617003 0.09252798 2.147641
-0.3484192 0.09125265 2.120172
-0.3323066 0.08915543 2.073358
-0.3324989 0.09143718 2.128887
-0.3176764 0.08960104 2.087976
-0.3103052 0.0898252 2.095244
-0.297923 0.0885717 2.067774
-0.3030207 0.09258965 2.164054
-0.2916434 0.09165936 2.144073
-0.2843707 0.09200226 2.153965
-0.2754971 0.09183238 2.151732
-0.2893243 0.09945523 2.333146
-0.2596966 0.09215042 2.162593
-0.2461761 0.09026456 2.119668
-0.2294195 0.0870212 2.044548
-0.2205376 0.08663978 2.036934
-0.2100601 0.08558005 2.013208
-0.2013235 0.08517532 2.004903
-0.1963612 0.08639891 2.035107
-0.1886057 0.08644427 2.037368
-0.179585 0.08588848 2.025324
-0.1685674 0.08428371 1.988326
-0.1633193 0.08554822 2.019353
-0.1580281 0.08691546 2.0528
-0.1491287 0.08633771 2.040011
-0.1378652 0.08425095 1.99129
-0.1279917 0.08281815 1.958032
-0.1158684 0.07965951 1.883641
-0.1101472 0.0807746 1.910859
-0.1022542 0.08034263 1.901219
-0.09951878 0.0842082 1.99387
-0.08699958 0.07974961 1.888239
-0.08350078 0.08350078 1.978122
-0.07225383 0.07947922 1.882755
-0.06778444 0.08284764 1.963466
-0.05890061 0.08098834 1.919519
-0.0502497 0.07896381 1.871571
-0.04313159 0.07907457 1.874493
-0.03910154 0.08602338 2.040484
-0.03144271 0.08646745 2.051288
-0.02425401 0.08893137 2.110237
-0.01728427 0.09506346 2.256665
-0.008665261 0.09531787 2.262813
-0 0.09515136 2.258866
0.008618793 0.09480672 2.250617
0.01720527 0.09462897 2.246299
0.02573873 0.09437536 2.240119
0.0341613 0.09394357 2.229639
0.04287169 0.09431772 2.238333
0.05106495 0.09361907 2.221387
0.05912351 0.09290837 2.204108
0.0674345 0.09272245 2.199294
0.07595287 0.09283129 2.201458
0.08195818 0.090154 2.137168
0.09303861 0.09303861 2.205383
0.107923 0.09892941 2.345122
0.2189867 0.1852964 4.401203
0.2363958 0.1857396 4.41038
0.2497018 0.1831147 4.346429
0.2677608 0.1840855 4.367962
0.2850104 0.1844185 4.374205
0.2999783 0.18332 4.34631
0.3180868 0.1841555 4.364285
0.3367 0.185185 4.386744
0.3467297 0.1816203 4.300013
0.3547035 0.1773518 4.196559
0.3671504 0.1755937 4.152639
0.3693016 0.1692632 4.000292
0.3839279 0.1689283 3.990034
0.409281 0.1731573 4.087731
0.4335873 0.1766467 4.167699
0.467447 0.1836399 4.330297
0.4923475 0.1867525 4.400875
0.5101961 0.1870719 4.40529
0.5343654 0.1896135 4.462007
0.54646 0.1878456 4.416922
0.5595458 0.1865153 4.382091
0.5764034 0.1864834 4.377756
0.5930164 0.1863766 4.37154
0.6011621 0.1836884 4.304557
0.621837 0.1848705 4.328424
0.6378496 0.1846407 4.319008
0.6603053 0.1862399 4.352338
0.6786179 0.1866199 4.35693
0.6984966 0.1874015 4.370775
0.7125773 0.1866274 4.348115
0.7180607 0.18369 4.274887
0.7411618 0.1852905 4.307458
0.740561 0.181026 4.203269
0.7510503 0.179599 4.165167
0.7067296 0.1654048 3.830471
0.7017685 0.1608219 3.719433
0.7112184 0.1596613 3.687837
0.7179933 0.1579585 3.643653
0.7293786 0.157317 3.623981
0.7474457 0.1581135 3.637426
0.7498235 0.1556237 3.574969
0.797354 0.162424 3.726349
0.8136938 0.1627388 3.728127
nan nan nan
nan nan nan
nan nan nan
0.7636293 0.1423716 3.239912
0.8550441 0.1567581 3.562607
0.8750011 0.1577871 3.580054
0.8815134 0.1563975 3.542341
0.9039719 0.1578363 3.568774
0.8910543 0.1531499 3.456275
0.9201375 0.1557156 3.507946
0.9063089 0.1510515 3.396181
0.9039437 0.1484087 3.330204
0.9471799 0.1532203 3.431861
0.9620361 0.1533681 3.428367
0.3687792 0.05795101 1.285664
0.4207381 0.06518477 1.444579
0.4556286 0.06960992 1.540162
0.4780433 0.07203391 1.590759
0.4877564 0.07250433 1.597705
0.4747802 0.06963442 1.530573
0.4809997 0.06961838 1.526725
0.4771652 0.06816645 1.491168
0.4855922 0.06848094 1.494551
0.5128687 0.07141209 1.555252
0.5220743 0.07178522 1.559596
0.5324327 0.07230566 1.567057
0.5227572 0.07012596 1.5156
0.5362718 0.07107216 1.532221
0.5436964 0.07119834 1.530912
0.5505376 0.07124604 1.527832
-1.102397 0.1469863 2.857921
-1.103404 0.1487735 2.901263
-1.052689 0.1435485 2.807012
-1.034224 0.1426516 2.797286
-0.9908708 0.138261 2.718371
-0.9440155 0.1332728 2.627041
-0.9247394 0.1321056 2.610928
-0.8725654 0.126154 2.499365
-0.8693766 0.1272258 2.527236
-0.8902739 0.1318924 2.627031
-0.8436096 0.1265414 2.526291
-0.833777 0.1266497 2.534678
-0.8184161 0.1259102 2.525893
-0.8355932 0.1302223 2.618983
-0.8340845 0.1316976 2.654943
-0.8108803 0.1297408 2.621295
-0.794935 0.1289084 2.610236
-0.7774056 0.1277927 2.593232
-0.7503769 0.1250628 2.543061
-0.7073348 0.1195496 2.435586
-0.7096388 0.1216524 2.483768
-0.6948283 0.1208397 2.472113
-0.6546949 0.1155344 2.367783
-0.6536424 0.1170703 2.404097
-0.6526439 0.1186625 2.441613
-0.6154335 0.1136185 2.341719
-0.6038525 0.1132223 2.337797
-0.6313915 0.1202651 2.488391
-0.5935507 0.1148808 2.380652
-0.5674088 0.1116214 2.316765
-0.5226839 0.1045368 2.172647
-0.5126598 0.1042698 2.170641
-0.5013192 0.1037212 2.162642
-0.5095221 0.1072678 2.24051
-0.4865387 0.1042583 2.180682
-0.4850217 0.1058229 2.216913
-0.4644114 0.1032025 2.164914
-0.4627292 0.1047689 2.201103
-0.4519116 0.1042873 2.194006
-0.4233074 0.09960175 2.097784
-0.4305417 0.10333 2.179645
-0.401162 0.09824374 2.07449
-0.4007275 0.1001819 2.118329
-0.3955544 0.1009926 2.138209
-0.3930545 0.102536 2.17368
-0.3719854 0.09919612 2.104975
-0.3726348 0.1016277 2.159321
-0.3531261 0.09854683 2.095844
-0.3502294 0.1000655 2.130624
-0.3382957 0.09901339 2.110319
-0.3321614 0.09964842 2.1261
-0.3215895 0.09895059 2.113227
-0.3123834 0.09864739 2.108747
-0.307687 0.09979039 2.135308
-0.3027171 0.1009057 2.161259
-0.2867686 0.09832068 2.107446
-0.2886892 0.1018903 2.186233
-0.2861208 0.1040439 2.23452
-0.2754623 0.1032984 2.220189
-0.2650408 0.1025964 2.206715
-0.2404283 0.0961713 2.069332
-0.2321487 0.09606154 2.068433
-0.2201362 0.09434406 2.032643
-0.2130713 0.09469834 2.041668
-0.2036769 0.09400474 2.027917
-0.1969928 0.09455655 2.041131
-0.1877024 0.09385119 2.027002
-0.176175 0.09191738 1.986107
-0.1732203 0.09448382 2.04297
-0.164069 0.0937537 2.028125
-0.1586258 0.09517545 2.06005
-0.1455178 0.09190597 1.9898
-0.1347586 0.08983905 1.945636
-0.1257895 0.08879258 1.923627
-0.1169033 0.08767744 1.900057
-0.1130536 0.0904429 1.961058
-0.1029968 0.08828295 1.914596
-0.0971706 0.08969593 1.946033
-0.08797058 0.08797058 1.908933
-0.08219184 0.08966383 1.946415
-0.07198185 0.08637821 1.875126
-0.06523873 0.08698497 1.888793
-0.05795797 0.08693696 1.888114
-0.05328053 0.09133805 1.984623
-0.04436279 0.08872558 1.927818
-0.03793752 0.09105004 1.978875
-0.03130629 0.09391887 2.041799
-0.02335704 0.09342814 2.031234
-0.01750434 0.1050261 2.284942
-0.008689323 0.1042719 2.26853
-0 0.1033513 2.248426
0.008631232 0.1035748 2.253287
0.01718832 0.1031299 2.243483
0.02565405 0.1026162 2.232122
0.03405767 0.102173 2.222253
0.04285836 0.1028601 2.237042
0.05093738 0.1018748 2.215223
0.05910479 0.1013225 2.202822
0.06758045 0.1013707 2.203495
0.07562546 0.100834 2.191338
0.0834306 0.1001167 2.175192
0.09271516 0.1011438 2.197092
0.1025626 0.1025626 2.227479
0.2194311 0.2025518 4.408987
0.2378026 0.2038308 4.435512
0.2540349 0.2032279 4.420872
0.2673218 0.2004913 4.359616
0.2869171 0.2025297 4.402366
0.3031702 0.2021134 4.3915
0.3199092 0.2020479 4.388174
0.3334516 0.2000709 4.34314
0.3517999 0.2010285 4.36188
0.3625 0.1977273 4.28789
0.3755168 0.1959218 4.246375
0.3666556 0.1833278 3.970466
0.3882191 0.1863452 4.033657
0.3916305 0.1807525 3.909877
0.4318068 0.1919141 4.149396
0.4482369 0.1921015 4.150723
0.4794472 0.1983919 4.284078
0.5073802 0.2029521 4.379697
0.5310942 0.2055848 4.433387
0.5391234 0.2021713 4.356249
0.5609924 0.2039972 4.392217
0.5769417 0.2036265 4.38062
0.5965148 0.2045193 4.396153
0.6087995 0.2029332 4.358153
0.6264896 0.2031858 4.359652
0.6396528 0.2019956 4.33001
0.6605609 0.2032495 4.352776
0.6732166 0.201965 4.320915
0.6881592 0.2014124 4.304672
0.709313 0.2026608 4.326883
0.7163286 0.1999057 4.263299
0.7407309 0.2020175 4.303682
0.7493536 0.1998276 4.252055
0.7747217 0.2021013 4.295533
0.6638363 0.1694901 3.59622
0.698356 0.174589 3.700182
0.6943188 0.1700373 3.598852
0.7293641 0.1750474 3.70042
0.7186689 0.1690986 3.569516
0.7427627 0.1714068 3.613461
0.7521611 0.1703006 3.58505
0.7904536 0.1756564 3.692861
0.8087369 0.1764517 3.704197
0.8181195 0.1753113 3.674662
0.7070343 0.1488493 3.113475
0.7568077 0.1565809 3.270646
0.8458573 0.1720388 3.588886
0.8499733 0.1699947 3.540284
0.8909928 0.1752772 3.644526
0.8847099 0.1712342 3.554085
0.9122257 0.1737573 3.600299
0.9182625 0.1721742 3.561004
0.9342187 0.1724711 3.56064
0.9391112 0.1707475 3.518358
0.9211827 0.1649879 3.392809
0.9653413 0.1703544 3.496721
nan nan nan
0.6658597 0.1141474 2.32983
0.9583219 0.1619699 3.303891
0.4714126 0.07856876 1.593371
0.470262 0.07730334 1.564141
0.482339 0.07821713 1.579286
0.4763709 0.07621934 1.535207
0.4891657 0.0772367 1.552298
0.4852605 0.07562502 1.516129
0.5110188 0.07861827 1.572855
0.5150273 0.07823201 1.561292
0.5383024 0.08074535 1.607857
0.537088 0.0795686 1.580292
0.5520635 0.08078978 1.600632
0.5549596 0.08023513 1.585441
0.5619196 0.08027422 1.582031
0.5566744 0.07858934 1.544424
-1.149913 0.1660985 2.980378
-1.089859 0.1591929 2.864344
-1.063093 0.1570479 2.833721
-1.050187 0.1569244 2.839494
-1.013389 0.1531867 2.779297
-0.9678861 0.1480297 2.692688
-0.9603685 0.1486285 2.710893
-0.9333481 0.1461871 2.673218
-0.8667443 0.1374107 2.518563
-0.8812476 0.1414348 2.599267
-0.8623959 0.1401393 2.581805
-0.8481357 0.1395666 2.577533
-0.8298644 0.1383107 2.560406
-0.858426 0.144929 2.689836
-0.8378505 0.1433165 2.665972
-0.8343345 0.144618 2.696431
-0.8068195 0.1417386 2.64844
-0.8016739 0.1427638 2.673548
-0.7835695 0.1414778 2.655076
-0.7691577 0.1408317 2.64849
-0.7585319 0.1408702 2.654714
-0.7424901 0.1398894 2.641513
-0.7156983 0.1368247 2.588541
-0.7105172 0.1378616 2.61334
-0.7039247 0.1386518 2.633419
-0.6926637 0.1385327 2.63608
-0.6759672 0.1373058 2.617431
-0.6704533 0.1383475 2.642117
-0.6487753 0.1360335 2.602306
-0.6384506 0.1360632 2.607362
-0.6177706 0.1338503 2.569092
-0.6054721 0.1334091 2.564809
-0.5865391 0.1314657 2.531356
-0.581179 0.1325496 2.556346
-0.5585445 0.1296621 2.504263
-0.5575805 0.1317918 2.549417
-0.5310901 0.127855 2.47656
-0.5164028 0.1266649 2.456927
-0.5067461 0.1266865 2.460798
-0.4786151 0.1219999 2.372586
-0.4692778 0.1220122 2.375998
-0.4552808 0.1207888 2.355125
-0.4435683 0.1201331 2.345256
-0.4038809 0.1117117 2.182751
-0.4140467 0.1170132 2.289644
-0.387285 0.1118823 2.191317
-0.3762919 0.1111772 2.179927
-0.3589141 0.1085089 2.129704
-0.3524863 0.1091029 2.143746
-0.3391052 0.1075212 2.114727
-0.331874 0.1078591 2.123581
-0.3169743 0.1056581 2.082082
-0.3276197 0.1120804 2.211469
-0.3092377 0.1086511 2.14546
-0.305193 0.1102086 2.178355
-0.2932221 0.1089111 2.154466
-0.2810194 0.1074486 2.127191
-0.2804902 0.1104962 2.189651
-0.2594337 0.1053949 2.089694
-0.2634434 0.1104763 2.19268
-0.2390909 0.1036061 2.057134
-0.2322427 0.1041088 2.06865
-0.2194428 0.1018842 2.025594
-0.2134729 0.1027832 2.044923
-0.2027301 0.1013651 2.017832
-0.1964613 0.1021599 2.034985
-0.1850673 0.1002448 1.99779
-0.1786854 0.1009961 2.013974
-0.1728039 0.1021114 2.037428
-0.1573885 0.09743096 1.944503
-0.1581774 0.1028153 2.05359
-0.1420842 0.09721552 1.942008
-0.1343123 0.09700333 1.938587
-0.1295606 0.09907579 1.981062
-0.117381 0.09537209 1.907312
-0.1097859 0.09514779 1.903489
-0.1027961 0.09545349 1.910287
-0.09582046 0.09582046 1.918277
-0.08842631 0.09579518 1.918326
-0.0804102 0.09503024 1.903424
-0.07174529 0.09326887 1.868386
-0.06582094 0.09507468 1.905201
-0.06008399 0.09763648 1.957231
-0.05278983 0.09803827 1.965673
-0.04738661 0.102671 2.05941
-0.04069557 0.1058085 2.122963
-0.03193703 0.1037954 2.082569
-0.02437737 0.1056353 2.119859
-0.01733652 0.1126874 2.262275
-0.00866931 0.112701 2.262629
-0 0.1121266 2.251063
0.008611212 0.1119458 2.247389
0.01714595 0.1114487 2.237282
0.02574038 0.1115417 2.239028
0.03436799 0.111696 2.241961
0.04256069 0.1106578 2.220786
0.05100545 0.1105118 2.21756
0.05961533 0.1107142 2.22131
0.06744804 0.1096031 2.198521
0.07613553 0.1099735 2.205558
0.08390433 0.1090756 2.186976
0.09252032 0.1093422 2.191816
0.1021409 0.1106527 2.217631
0.21888 0.21888 4.396611
0.2371441 0.2202052 4.421915
0.2508869 0.2174353 4.364678
0.2689695 0.2185377 4.385283
0.2836649 0.2169202 4.351065
0.302365 0.2183747 4.378527
0.3221769 0.2204369 4.418068
0.3380039 0.2197025 4.401297
0.3489536 0.2160189 4.325223
0.3741437 0.2210849 4.424682
0.3792545 0.2143613 4.287488
0.3680938 0.1993842 3.984903
0.3965925 0.2062282 4.11968
0.4019759 0.2009879 4.012267
0.4324848 0.2082334 4.154685
0.4598114 0.2134839 4.256921
0.4992525 0.2238029 4.460178
0.5117427 0.2217552 4.416117
0.5263443 0.220725 4.392301
0.5444521 0.2211837 4.398081
0.5614814 0.2211896 4.394712
0.5814168 0.2223064 4.413335
0.5925777 0.2201003 4.365718
0.6111855 0.2207059 4.373926
0.6240121 0.2192475 4.341019
0.6345742 0.2170912 4.294203
0.6594999 0.2198333 4.344407
0.6762477 0.2197805 4.339057
0.6976522 0.2212068 4.362835
0.7006925 0.216881 4.272804
0.7337508 0.2218316 4.365879
0.7529449 0.222461 4.373437
0.7616921 0.2200444 4.320868
0.7782199 0.2199317 4.313589
0.6803628 0.1881854 3.68484
0.6751056 0.1828411 3.575444
0.6964235 0.1847654 3.608614
0.7182307 0.18674 3.64256
0.7248818 0.1847738 3.599283
0.7469608 0.1867402 3.632741
0.7642438 0.187456 3.641607
0.7803786 0.1878689 3.644422
0.8116333 0.1918406 3.71625
0.8142 0.1890108 3.655762
0.7351194 0.1676588 3.236501
0.4243195 0.0951061 1.828081
0.8410923 0.1853254 3.567375
0.8488136 0.1839096 3.534213
0.8732854 0.18611 3.570624
0.9172137 0.192319 3.683791
0.8938381 0.1844428 3.526255
0.9136108 0.1855772 3.541652
0.9331172 0.1866235 3.555163
0.9051468 0.1782865 3.389482
0.9661505 0.1874621 3.557711
0.9532668 0.1822422 3.451591
0.9980367 0.1880359 3.554608
0.3376072 0.06269848 1.175189
nan nan nan
0.4697636 0.08481845 1.587167
0.4792256 0.08534154 1.593579
0.4839148 0.08501206 1.583889
0.4850573 0.0840766 1.562819
0.4895122 0.08373236 1.552815
0.4916104 0.08299915 1.535532
0.5032346 0.08387243 1.548126
0.5096974 0.08387426 1.544418
0.5380958 0.08744057 1.606612
0.5400943 0.08668181 1.588581
0.5480985 0.08689366 1.58843
0.551542 0.08638611 1.574985
0.549231 0.08500003 1.545435
0.5581983 0.08537152 1.548065
-1.105379 0.1719479 2.863246
-1.127202 0.1773126 2.961578
-1.089411 0.1733153 2.902887
-1.062163 0.1709228 2.870759
-1.024587 0.1667932 2.80892
-0.9953716 0.1639436 2.768288
-0.9490693 0.1581782 2.677717
-0.9057764 0.1527815 2.592806
-0.9147025 0.1561687 2.657429
-0.8702794 0.1504187 2.565693
-0.8633074 0.1510788 2.583464
-0.8650715 0.1533038 2.628136
-0.8546184 0.153393 2.636031
-0.8557962 0.1555993 2.680458
-0.8439949 0.1554727 2.684508
-0.8333923 0.1555665 2.692277
-0.8160628 0.1543903 2.677829
-0.7952617 0.1525159 2.651003
-0.7859289 0.1528195 2.66204
-0.7734289 0.1525071 2.6622
-0.7620718 0.1524144 2.666101
-0.7527119 0.1527241 2.676983
-0.7049695 0.1451408 2.548567
-0.7126189 0.1489054 2.620084
-0.7047392 0.1494901 2.635458
-0.692153 0.1490791 2.633114
-0.6803976 0.148837 2.633652
-0.669435 0.1487633 2.637082
-0.6553357 0.147979 2.62774
-0.6423733 0.1474299 2.622463
-0.6233984 0.1454596 2.591629
-0.6116992 0.1451489 2.590339
-0.5890923 0.1421947 2.541481
-0.5811296 0.1427336 2.555184
-0.578249 0.1445622 2.592061
-0.5596069 0.1424454 2.557789
-0.5486027 0.1422303 2.557673
-0.5357025 0.1415063 2.548258
-0.5309348 0.142944 2.57788
-0.517563 0.1420761 2.565673
-0.5043841 0.1412276 2.553693
-0.4886874 0.139625 2.52788
-0.4776294 0.1393086 2.525336
-0.4634233 0.138041 2.505357
-0.4500019 0.1369571 2.4886
-0.4416535 0.1374033 2.499684
-0.4253524 0.1353394 2.464786
-0.4208974 0.1370363 2.498618
-0.4057207 0.1352402 2.468393
-0.3945067 0.1347096 2.461256
-0.3843108 0.1345088 2.460088
-0.3689921 0.1324587 2.424829
-0.3571749 0.1315908 2.411192
-0.3502463 0.1325256 2.430679
-0.3425131 0.1331995 2.445316
-0.3249532 0.1299813 2.388057
-0.2969008 0.1222533 2.247307
-0.3043779 0.12913 2.376321
-0.2980909 0.1304148 2.401989
-0.2768255 0.125018 2.303886
-0.2628154 0.1226472 2.261658
-0.2617322 0.1263535 2.332017
-0.254176 0.127088 2.347256
-0.2333914 0.1210178 2.236075
-0.2084212 0.1122268 2.074128
-0.2181289 0.1221522 2.259959
-0.1928901 0.1125192 2.082052
-0.1850556 0.1126425 2.085513
-0.179972 0.1145276 2.12174
-0.179314 0.1195426 2.216279
-0.1581029 0.110672 2.051963
-0.1492214 0.1099526 2.039487
-0.140172 0.1090226 2.023021
-0.1297142 0.1068234 1.982796
-0.1184184 0.1036161 1.923662
-0.1124157 0.1049213 1.948745
-0.107367 0.107367 1.995113
-0.09510577 0.1024216 1.903286
-0.08722249 0.1017596 1.89146
-0.08004847 0.1018799 1.894216
-0.07484587 0.1047842 1.949017
-0.06703157 0.1042713 1.939848
-0.06098351 0.1067211 1.986085
-0.05186014 0.1037203 1.930251
-0.04504188 0.1050977 1.956331
-0.03994473 0.1118453 2.082934
-0.0322428 0.1128498 2.101963
-0.02502858 0.1168 2.176118
-0.0171595 0.1201165 2.238363
-0.008587779 0.1202289 2.240546
-0 0.1213672 2.261894
0.00859475 0.1203265 2.242374
0.01724782 0.1207347 2.249943
0.02558291 0.1193869 2.224569
0.03420916 0.1197321 2.230854
0.0424667 0.1189068 2.215168
0.05099725 0.1189936 2.216512
0.05945935 0.1189187 2.214778
0.06717671 0.1175592 2.188948
0.07628019 0.1186581 2.209081
0.08372787 0.117219 2.18167
0.09300407 0.1183688 2.202647
0.1013293 0.1182176 2.19923
0.2210518 0.2380558 4.438959
0.2279554 0.2279554 4.248802
0.2433086 0.227088 4.231163
0.2679397 0.2344472 4.367074
0.2859329 0.2354742 4.384563
0.3032591 0.2358681 4.39012
0.3215734 0.2369488 4.408373
0.3311989 0.2318392 4.311086
0.3480168 0.2320112 4.312208
0.3650165 0.2322832 4.315085
0.3777192 0.229916 4.268718
0.3880169 0.2263432 4.19986
0.3935525 0.2203894 4.086697
0.3925094 0.2113512 3.916244
0.4263681 0.2210798 4.094438
0.4621857 0.2310928 4.277572
0.4953565 0.2391376 4.423841
0.5126809 0.2392511 4.422789
0.5289422 0.2388771 4.412589
0.5358164 0.2344197 4.326715
0.558161 0.2367956 4.367213
0.5787501 0.2383088 4.391584
0.5962518 0.2385007 4.391397
0.6116846 0.2378773 4.376044
0.62154 0.2351773 4.322326
0.639768 0.235704 4.327985
0.6563917 0.2356278 4.322415
0.6726844 0.2354395 4.314668
0.6940956 0.2370082 4.339055
0.7113643 0.2371214 4.336568
0.7229134 0.2353671 4.299746
0.7382404 0.2348947 4.28632
0.7612677 0.2368388 4.316954
0.7186751 0.2187272 3.981269
0.7078269 0.210842 3.832705
0.7000645 0.2041855 3.706747
0.7166762 0.2047646 3.712575
0.7086306 0.1984166 3.59244
0.7302642 0.2004647 3.624797
0.7498826 0.2018915 3.645685
0.7543031 0.1992499 3.592793
0.7540185 0.1954862 3.519653
0.7834107 0.1994136 3.585318
0.8385007 0.2096252 3.763834
nan nan nan
0.8263599 0.1994662 3.569732
0.8288032 0.1966652 3.513775
0.8502178 0.1983841 3.538753
0.8707454 0.1998432 3.558864
0.8775507 0.1981566 3.522662
0.9099537 0.2022119 3.588673
0.9104863 0.1991689 3.528151
0.9234622 0.1988995 3.516905
0.9334325 0.1980008 3.494409
0.9538754 0.1993172 3.510998
0.9601307 0.1976739 3.475166
0.8522027 0.1729107 3.032334
1.030082 0.2060163 3.607768
1.016279 0.2003931 3.501714
0.470612 0.09150787 1.589416
0.484971 0.09300812 1.612171
0.4752329 0.08990894 1.554635
0.4901621 0.09149691 1.578743
0.4749349 0.08748801 1.505613
0.4975989 0.09047252 1.553735
0.5054698 0.09072535 1.554408
0.5218328 0.0924767 1.580803
0.5391462 0.09435059 1.609095
0.5344317 0.0923709 1.571142
0.5502639 0.09394749 1.594074
0.5426251 0.0915271 1.548674
0.557435 0.09290583 1.568018
0.5591133 0.09208925 1.549953
-1.124611 0.1874352 2.911877
-1.080083 0.1820365 2.835961
-1.060262 0.1807265 2.823582
-1.057612 0.182347 2.857075
-1.013117 0.1767064 2.776055
-1.067263 0.1883405 2.967686
-0.9523836 0.1700685 2.685872
-0.9179518 0.1658949 2.626611
-0.9033049 0.1652387 2.622979
-0.8894476 0.1647125 2.62127
-0.8662502 0.1624219 2.591144
-0.8712035 0.1654184 2.645663
-0.8555174 0.1645226 2.637642
-0.8589931 0.1673363 2.689323
-0.8538848 0.1685299 2.714904
-0.834704 0.1669408 2.695353
-0.8250538 0.1672406 2.70628
-0.8078717 0.166001 2.692055
-0.7844306 0.163423 2.655799
-0.776525 0.1640546 2.67176
-0.7571956 0.1622562 2.64784
-0.7496344 0.162964 2.664862
-0.7313852 0.161335 2.64338
-0.7128177 0.1595861 2.61972
-0.6972503 0.158466 2.606244
-0.6944283 0.1602527 2.640712
-0.6855965 0.1606867 2.652769
-0.66947 0.1593976 2.636139
-0.6549281 0.1584503 2.625029
-0.6426938 0.1580395 2.622713
-0.6293191 0.1573298 2.615297
-0.611239 0.1553997 2.587343
-0.5911731 0.1528896 2.549481
-0.5855286 0.1540865 2.573591
-0.5677667 0.1520804 2.54386
-0.5589157 0.1524315 2.553612
-0.5523154 0.1534209 2.574054
-0.5414038 0.1532275 2.574498
-0.5277713 0.1522417 2.56146
-0.5167415 0.1519828 2.560596
-0.5034019 0.1510206 2.547721
-0.4907189 0.1502201 2.537468
-0.4782645 0.1494576 2.527749
-0.4641541 0.1481343 2.508378
-0.4521197 0.1474304 2.499425
-0.4393951 0.146465 2.485912
-0.4275812 0.1457663 2.476838
-0.4166235 0.1453338 2.472212
-0.4060741 0.1450264 2.46964
-0.3989325 0.1459509 2.488081
-0.3821643 0.1433116 2.445388
-0.3744751 0.1440289 2.460134
-0.365493 0.1442736 2.466717
-0.3620637 0.1467826 2.512169
-0.3404562 0.1418567 2.429687
-0.330642 0.1417037 2.429193
-0.3210906 0.1416576 2.430471
-0.309622 0.1407372 2.416598
-0.2931621 0.1374197 2.361246
-0.2911181 0.1408636 2.422573
-0.2805278 0.1402639 2.414004
-0.2722876 0.1408384 2.425676
-0.2604463 0.1395248 2.404603
-0.2500432 0.1389129 2.395595
-0.2408764 0.1389671 2.398063
-0.2303644 0.1382186 2.386544
-0.2205701 0.1378563 2.381652
-0.2101835 0.1370762 2.369437
-0.2023118 0.1379399 2.385715
-0.190634 0.1361671 2.356108
-0.1819892 0.1364919 2.362901
-0.1707371 0.1347925 2.334413
-0.1610337 0.1341947 2.325022
-0.1388895 0.1225495 2.123138
-0.1196618 0.1121829 1.943321
-0.1113304 0.1113304 1.929165
-0.1043514 0.1118051 1.938097
-0.09997094 0.1153511 2.000561
-0.08700995 0.1087625 1.886186
-0.08250137 0.1125019 1.951954
-0.07461089 0.1119163 1.942208
-0.06827446 0.1137908 1.975365
-0.05994003 0.1123876 1.951249
-0.05468193 0.1171756 2.03522
-0.04569598 0.11424 1.984242
-0.03895579 0.1168674 2.030401
-0.03334856 0.1250571 2.173716
-0.02545003 0.1272501 2.212215
-0.01723829 0.1292872 2.247942
-0.008602766 0.1290415 2.243726
-0 0.1301741 2.263546
0.008572549 0.1285882 2.235804
0.01722434 0.1291826 2.246114
0.02564878 0.1282439 2.22958
0.03403199 0.12762 2.218499
0.04175703 0.1252711 2.177228
0.05090582 0.1272646 2.211776
0.05842504 0.1251965 2.175322
0.06803124 0.1275586 2.216195
0.07554661 0.125911 2.186991
0.08444738 0.1266711 2.199777
0.09222247 0.1257579 2.183304
0.09905319 0.1238165 2.148846
0.2152732 0.2483921 4.321163
0.2310777 0.2475833 4.305702
0.2502839 0.2502839 4.351322
0.2695369 0.2526908 4.391687
0.2868193 0.2530759 4.396699
0.2983952 0.2486626 4.318055
0.3171686 0.2503963 4.34635
0.3310313 0.2482735 4.307427
0.3539787 0.2528419 4.384775
0.3600412 0.2454827 4.254653
0.3847872 0.2509482 4.347314
0.3856062 0.2410039 4.172255
0.4013823 0.2408294 4.166789
0.4162603 0.2401502 4.15247
0.4304219 0.2391233 4.132035
0.481349 0.2578655 4.453851
0.4949484 0.2560078 4.418639
0.5105788 0.2552894 4.403059
0.5292301 0.256079 4.413439
0.5414551 0.2538071 4.370821
0.5601637 0.2546198 4.381365
0.5766842 0.2544195 4.374306
0.595761 0.2553262 4.386201
0.6171557 0.2571482 4.413701
0.6358181 0.2577641 4.420287
0.6496814 0.2564532 4.393634
0.6554798 0.2521076 4.314824
0.678399 0.2543996 4.349829
0.6976996 0.255256 4.360044
0.7153537 0.2554834 4.359345
0.736475 0.2569099 4.379001
0.7469642 0.2546469 4.335495
0.7551492 0.2517164 4.280566
0.7319546 0.2386808 4.053524
0.6915951 0.2207219 3.743138
0.6998869 0.2187146 3.704399
0.6975465 0.2135346 3.611796
0.7203804 0.2161141 3.650799
0.7298951 0.214675 3.621566
0.7486504 0.2159568 3.638269
0.7663435 0.2168897 3.648908
0.7828392 0.2174553 3.653196
0.7847651 0.2140268 3.590127
nan nan nan
nan nan nan
0.8249836 0.2133578 3.562347
0.8410029 0.2138143 3.564237
0.8571687 0.2142922 3.56634
0.8633038 0.2122878 3.526922
0.8893713 0.2151705 3.568814
0.9121938 0.217189 3.596063
0.9075232 0.2127008 3.515184
0.9322578 0.2151364 3.549042
0.9308432 0.2115553 3.483235
0.9509282 0.2128944 3.49865
nan nan nan
nan nan nan
1.058455 0.2268119 3.705884
1.042622 0.2202722 3.591243
0.4786006 0.09970846 1.615893
0.4730175 0.09719538 1.571469
0.4845189 0.09821328 1.584544
0.4879131 0.09758262 1.570757
0.487765 0.09626941 1.545914
0.4984246 0.09709571 1.555642
0.516606 0.0993473 1.588198
0.5276196 0.1001809 1.597743
0.5401075 0.1012702 1.611258
0.5448623 0.1009004 1.601303
0.5493737 0.1004952 1.590751
0.5521327 0.09978302 1.575288
0.5579405 0.09963224 1.568726
0.5591109 0.09866663 1.549227
-1.112904 0.1978496 2.879982
-1.127083 0.2026217 2.958371
-1.063028 0.1932779 2.829555
-1.078897 0.1984177 2.913346
-1.052133 0.1957456 2.881971
-0.9665574 0.1819402 2.685247
-0.9416097 0.1793542 2.654052
-0.8936945 0.1722784 2.555646
-0.8887516 0.1734149 2.579279
-0.8871784 0.1752451 2.613287
-0.8686273 0.1737255 2.597035
-0.8566536 0.1734995 2.600041
-0.8422879 0.172777 2.59544
-0.8630328 0.1793315 2.700745
-0.8513119 0.1792236 2.705415
-0.8370141 0.178563 2.701578
-0.822551 0.1778489 2.696779
-0.8059267 0.1766415 2.684303
-0.7945471 0.176566 2.688959
-0.774295 0.174489 2.662834
-0.75241 0.1719794 2.629834
-0.7470579 0.1732308 2.65446
-0.7431704 0.1748636 2.684949
-0.7106347 0.1697038 2.610492
-0.7033349 0.1705054 2.627916
-0.6922358 0.1703965 2.631172
-0.6816925 0.1704231 2.636436
-0.6704088 0.1702626 2.638694
-0.6574664 0.1696687 2.634097
-0.6400605 0.1678847 2.610787
-0.62247 0.165992 2.585592
-0.6065996 0.1645016 2.566515
-0.5968938 0.1646603 2.573163
-0.5838101 0.1638765 2.564914
-0.580089 0.1657397 2.598221
-0.5648475 0.1643193 2.579751
-0.5554625 0.1645815 2.587703
-0.5346245 0.1613961 2.541059
-0.5303682 0.1631902 2.573054
-0.5111837 0.1603714 2.531888
-0.5030128 0.1609641 2.544698
-0.4917194 0.1605614 2.541627
-0.4789048 0.1596349 2.53012
-0.4699684 0.1599893 2.538916
-0.448141 0.1558751 2.476332
-0.4398863 0.156404 2.487707
-0.4288861 0.1559586 2.483441
-0.4176456 0.155403 2.477322
-0.404906 0.1542499 2.46153
-0.3986091 0.1555548 2.485076
-0.384283 0.1537132 2.458044
-0.3751249 0.1538974 2.463461
-0.3593234 0.1512941 2.423941
-0.3548475 0.1534476 2.460917
-0.3429898 0.1524399 2.446909
-0.3339632 0.1526689 2.452766
-0.3208594 0.1509927 2.427783
-0.3088189 0.1497304 2.409381
-0.2990708 0.1495354 2.408152
-0.2889886 0.1491554 2.403858
-0.2784673 0.1485159 2.395284
-0.2623792 0.1447609 2.33611
-0.261169 0.1492394 2.410402
-0.2514322 0.1489968 2.408066
-0.2408494 0.148215 2.3969
-0.2322321 0.1486285 2.405092
-0.2230337 0.1486892 2.40749
-0.2097569 0.1459178 2.363731
-0.1998282 0.1453296 2.355419
-0.1906845 0.1452834 2.355869
-0.180477 0.1443816 2.342312
-0.1713575 0.144301 2.342079
-0.1613277 0.1434024 2.328439
-0.1433399 0.1349081 2.190739
-0.1176298 0.1176298 1.909431
-0.1139631 0.1215606 1.974339
-0.1031438 0.1178786 1.914841
-0.09364823 0.1152594 1.87263
-0.08806823 0.1174243 1.908577
-0.07912222 0.1150869 1.870858
-0.07128329 0.1140533 1.854406
-0.06749856 0.1199974 1.952083
-0.05957583 0.1191517 1.938626
-0.05445308 0.1244642 2.025927
-0.04410461 0.1176123 1.914054
-0.04025705 0.1288226 2.097854
-0.03414803 0.1365921 2.225304
-0.02585437 0.13789 2.246739
-0.01733585 0.1386868 2.25992
-0.008657356 0.1385177 2.257228
-0 0.1381079 2.250543
0.00862016 0.1379226 2.247481
0.01724286 0.1379429 2.247736
0.02570791 0.1371088 2.233947
0.03417593 0.1367037 2.227131
0.04247741 0.1359277 2.214193
0.05109383 0.1362502 2.219191
0.05966157 0.1363693 2.220806
0.06773321 0.1354664 2.205643
0.0743426 0.1321646 2.151179
0.08365612 0.1338498 2.178273
0.09188924 0.1336571 2.174589
0.1000572 0.1334096 2.16996
0.2104325 0.2589939 4.222215
0.2354733 0.2691123 4.386238
0.252429 0.2692576 4.387125
0.2704107 0.2704107 4.404365
0.2904586 0.2733729 4.451015
0.3001953 0.2668403 4.342592
0.3178751 0.2676843 4.354468
0.3293297 0.2634638 4.28366
0.3444646 0.2624492 4.265051
0.3690339 0.2683883 4.359603
0.384331 0.2673607 4.340546
0.3735221 0.2490147 4.039651
0.4021374 0.257368 4.173102
0.4358386 0.2682084 4.3467
0.4436113 0.2628807 4.257416
0.4711622 0.2692356 4.35772
0.4992479 0.2754471 4.455449
0.5126823 0.2734306 4.419581
0.5306448 0.2738812 4.423597
0.5397025 0.2698512 4.354983
0.5619408 0.2724562 4.39363
0.5721602 0.2692519 4.338243
0.592167 0.2707049 4.357999
0.6115227 0.2717879 4.371628
0.6177808 0.2671485 4.292904
0.6439545 0.2711388 4.353113
0.6589563 0.270341 4.33608
0.6774246 0.2709698 4.341866
0.6973259 0.2721272 4.35599
0.7067522 0.2692389 4.30509
0.7329088 0.2727103 4.356014
0.739288 0.268832 4.289114
0.7463969 0.2653856 4.229128
0.7551275 0.2626531 4.180539
0.7035175 0.2394953 3.806326
0.6870825 0.2290275 3.634942
0.7115991 0.2323589 3.683287
0.7167917 0.2293733 3.631067
0.7362558 0.2309822 3.651722
0.7517121 0.231296 3.651683
0.771153 0.2328009 3.670352
0.7860246 0.2328962 3.666575
0.7565467 0.2200863 3.459168
0.8116752 0.2319072 3.640079
0.8351588 0.2344305 3.674133
0.8423268 0.232366 3.635926
0.8158921 0.2212589 3.45599
0.8492229 0.2264594 3.531651
0.8659812 0.2271426 3.536362
0.8356067 0.2156404 3.350915
0.9036887 0.2295082 3.560866
0.8950774 0.2237694 3.465292
0.900084 0.2215591 3.424645
0.932107 0.2259654 3.486426
0.9350834 0.2233035 3.438622
0.8782409 0.2066449 3.175022
0.6146585 0.1425295 2.181982
1.009499 0.2307427 3.532339
1.002323 0.2258756 3.450412
0.4663085 0.1036241 1.57337
0.4920358 0.1078435 1.634354
0.4702694 0.1016799 1.536888
0.4868366 0.1038585 1.566529
0.473285 0.09963895 1.498972
0.5059986 0.1051426 1.578705
0.5199805 0.1066627 1.597884
0.5255357 0.1064376 1.590623
0.541172 0.1082344 1.613676
0.5921675 0.1169713 1.740481
0.6304177 0.1230083 1.826222
0.6363505 0.12267 1.816429
0.6484346 0.1235113 1.824125
0.6474887 0.1218802 1.795035
-1.1081 0.2093078 2.865947
-1.083973 0.207051 2.843245
-1.050757 0.2029871 2.79526
-1.032626 0.2017775 2.786424
-0.9663615 0.191025 2.644691
-1.022257 0.2044513 2.839153
-0.9386561 0.1899661 2.644304
-0.929531 0.1903859 2.6572
-0.8685692 0.1800692 2.519139
-0.8836511 0.1854576 2.601508
-0.8713048 0.1851522 2.603738
-0.8592944 0.1849115 2.606761
-0.8584721 0.1871029 2.644189
-0.8490722 0.1874575 2.655531
-0.8424635 0.1884458 2.675833
-0.8446338 0.1914503 2.724916
-0.8208541 0.1885746 2.689856
-0.807132 0.1879622 2.687008
-0.7864475 0.185689 2.660124
-0.7802068 0.1868101 2.681942
-0.7740883 0.1879929 2.704621
-0.7485993 0.1844375 2.658676
-0.7259909 0.1814977 2.621357
-0.7071841 0.1794348 2.596519
-0.7129598 0.1836412 2.66277
-0.6956086 0.1819284 2.642799
-0.6835674 0.1815726 2.642476
-0.6683672 0.1803531 2.629394
-0.6494327 0.1780703 2.600561
-0.636061 0.1772629 2.593201
-0.6174008 0.1749302 2.563262
-0.6127807 0.1765639 2.591598
-0.6019376 0.17643 2.593821
-0.5906478 0.1761581 2.593914
-0.5765572 0.1750263 2.581168
-0.5644939 0.17448 2.576972
-0.5455013 0.1717319 2.539958
-0.540589 0.1733965 2.568395
-0.525133 0.1716781 2.546417
-0.5151744 0.1717248 2.550622
-0.5013936 0.1704738 2.535361
-0.4900175 0.1700061 2.531688
-0.4787042 0.1695411 2.52796
-0.4694407 0.1697977 2.534959
-0.452321 0.1671621 2.498464
-0.4386394 0.1657082 2.479563
-0.4282347 0.1654543 2.478597
-0.4179161 0.1652227 2.477884
-0.4067936 0.1646546 2.472016
-0.3940628 0.1633919 2.455571
-0.3828461 0.1627096 2.447788
-0.377057 0.1643582 2.475178
-0.3616486 0.1617902 2.43869
-0.3550337 0.1631236 2.461198
-0.3415705 0.1612972 2.435735
-0.3321336 0.161322 2.438266
-0.3210287 0.1605143 2.428078
-0.3032384 0.1562137 2.364673
-0.2967252 0.1576352 2.388207
-0.2908064 0.1594744 2.418074
-0.27914 0.1581793 2.400133
-0.2710478 0.1588901 2.412703
-0.2595425 0.1575794 2.394362
-0.2458649 0.1548038 2.353553
-0.2399759 0.1569073 2.387216
-0.2304597 0.1567126 2.385704
-0.2172488 0.1538845 2.343822
-0.2072418 0.1531787 2.334331
-0.1988066 0.1536233 2.342398
-0.1895137 0.1534158 2.340417
-0.1812485 0.1540612 2.351454
-0.1707628 0.1527878 2.333001
-0.1609947 0.1520506 2.322705
-0.1455173 0.1455173 2.223327
-0.1182983 0.125692 1.919603
-0.1110643 0.1258729 1.923084
-0.1049176 0.1274 1.947216
-0.09809275 0.1282751 1.961292
-0.08957428 0.1268969 1.940663
-0.07947881 0.1228309 1.878618
-0.07418924 0.1261217 1.929729
-0.0692559 0.1308167 2.002436
-0.06022607 0.1279804 1.959159
-0.05383396 0.1307396 2.001994
