# .PCD v.7 - Point Cloud Data file format
FIELDS x y z
SIZE 4 4 4
TYPE F F F
COUNT 1 1 1
WIDTH 1691
HEIGHT 1
VIEWPOINT 0 0 0 1 0 0 0
POINTS 1691
DATA ascii
nan nan nan
nan nan nan
1.103595 -1.08489 4.469089
nan nan nan
nan nan nan
nan nan nan
0.1771454 -0.1630863 0.6569215
nan nan nan
1.131222 -1.009398 4.108693
0.9886235 -0.8687904 3.52734
nan nan nan
1.257454 -1.072535 4.338447
nan nan nan
nan nan nan
nan nan nan
0.5911937 -0.4762394 1.902483
0.5827861 -0.4630355 1.844981
0.6006051 -0.4707446 1.871308
0.5971155 -0.4617693 1.830848
0.6100115 -0.4655351 1.841202
0.6136395 -0.4622219 1.823311
0.627175 -0.4663609 1.834923
0.6382581 -0.4685946 1.838856
0.6523745 -0.4729715 1.851112
0.6705387 -0.4801388 1.874161
0.680917 -0.4816242 1.874731
0.6837009 -0.4777669 1.854332
0.6965866 -0.4809765 1.861467
0.6917886 -0.472044 1.821314
-0.6230188 -0.3945786 1.526818
-1.298217 -0.8314425 3.240211
-0.8987161 -0.5821229 2.272229
-1.146452 -0.751124 2.944259
-1.042355 -0.6908633 2.715326
-1.046732 -0.7019264 2.767216
-1.038605 -0.7047674 2.786613
-1.000793 -0.6872917 2.725074
-1.018731 -0.7081425 2.816069
-1.045128 -0.7354603 2.933317
-0.9707035 -0.6916263 2.765383
-0.9795718 -0.7067797 2.83386
-0.9607868 -0.7021134 2.822553
-0.9420944 -0.6973946 2.810827
-0.9255383 -0.6941537 2.804894
-0.8974078 -0.6820298 2.762657
-0.886061 -0.6825064 2.771448
-0.8603117 -0.6717503 2.734232
-0.850561 -0.6733608 2.747371
-0.8276477 -0.6644495 2.717228
-0.8093254 -0.6590221 2.701155
-0.7924704 -0.6546495 2.689232
-0.7815564 -0.6551281 2.697186
-0.7656044 -0.6513351 2.687351
-0.7415778 -0.6404535 2.647916
-0.7278636 -0.6382803 2.64443
-0.7102962 -0.6326076 2.626218
-0.7065581 -0.6392669 2.659338
-0.6782077 -0.6235135 2.59865
-0.6827167 -0.6379484 2.66423
-0.6512285 -0.6186672 2.588265
-0.6412574 -0.6195199 2.596668
-0.6259629 -0.6151704 2.583052
-0.6161778 -0.6161778 2.591914
-0.6021276 -0.6128798 2.582478
-0.5905154 -0.6119887 2.583108
-0.5765471 -0.6085775 2.572936
-0.5638538 -0.6064087 2.567912
-0.5566648 -0.6101903 2.588121
-0.5461718 -0.6104273 2.59317
-0.530713 -0.6050128 2.573983
-0.5031546 -0.5853023 2.493457
-0.4951827 -0.5880294 2.508768
-0.4880731 -0.5919184 2.529015
-0.4688063 -0.5809122 2.485209
-0.460194 -0.5829124 2.497168
-0.4492599 -0.5819957 2.4965
-0.4344701 -0.5759256 2.473504
-0.4225547 -0.5734671 2.465966
-0.4127826 -0.5738685 2.470693
-0.4019541 -0.5727846 2.468915
-0.3894532 -0.5692007 2.45621
-0.3796147 -0.5694221 2.459908
-0.3645849 -0.5616578 2.428835
-0.3524446 -0.5580372 2.415638
-0.3485411 -0.567624 2.459837
-0.3311051 -0.5550878 2.407631
-0.3209701 -0.5544029 2.406944
-0.3069923 -0.5468299 2.376103
-0.2971091 -0.5462973 2.375899
-0.2900926 -0.551176 2.399287
-0.2791273 -0.5486295 2.390137
-0.2657681 -0.5410279 2.358752
-0.2534482 -0.5350574 2.334397
-0.2442353 -0.5354389 2.337804
-0.2345087 -0.5346798 2.336137
-0.2235055 -0.5308257 2.320799
-0.2159868 -0.5352716 2.341864
-0.2063626 -0.5346667 2.340666
-0.1946767 -0.5284081 2.314511
-0.1869483 -0.5328026 2.335179
-0.1763505 -0.5290515 2.319906
-0.1668649 -0.5284055 2.318241
-0.1573636 -0.527631 2.315942
-0.1484015 -0.5286803 2.321622
-0.137686 -0.5232068 2.298445
-0.1284701 -0.523057 2.298696
-0.1187391 -0.5206255 2.288802
-0.1075086 -0.5106658 2.245564
-0.09866706 -0.5112748 2.248962
-0.09067829 -0.5168662 2.274334
-0.08136848 -0.5153337 2.268143
-0.07268896 -0.5179088 2.280063
-0.06375458 -0.5191444 2.285996
-0.05539314 -0.5262348 2.317784
-0.04458363 -0.5082534 2.238528
-0.03580199 -0.5101783 2.247324
-0.02698492 -0.5127136 2.258763
-0.01780785 -0.5075237 2.235935
-0.008928546 -0.5089272 2.242241
-0 -0.5040846 2.220826
0.008816511 -0.5025412 2.213961
0.01758849 -0.5012721 2.208251
0.02630561 -0.4998067 2.201613
0.03512265 -0.5004978 2.204463
0.04408826 -0.5026062 2.213528
0.0522721 -0.4965849 2.186545
0.06104619 -0.4970903 2.188396
0.06959341 -0.495853 2.182474
0.07872451 -0.4985885 2.19407
0.08816501 -0.5025406 2.210979
0.09496753 -0.4921044 2.164207
0.0840411 -0.3991952 1.752886
nan nan nan
0.07197832 -0.2930546 1.282849
nan nan nan
nan nan nan
nan nan nan
nan nan nan
nan nan nan
0.1172888 -0.3342731 1.460782
0.1263338 -0.342906 1.497953
0.1285311 -0.3330125 1.453534
0.1282864 -0.317927 1.386299
0.1313436 -0.311941 1.359089
0.1288955 -0.2938817 1.278865
nan nan nan
nan nan nan
0.2611253 -0.5315765 2.317345
nan nan nan
0.1875878 -0.3564167 1.547438
0.1894603 -0.3483625 1.510902
nan nan nan
0.2697981 -0.466015 2.021377
0.166057 -0.2783896 1.201761
0.1970232 -0.3208663 1.385505
0.2112444 -0.3344702 1.44326
0.2067388 -0.3184895 1.372307
0.2066354 -0.3099532 1.333769
0.2798905 -0.4090706 1.761988
nan nan nan
0.1747871 -0.2429967 1.039562
0.2149541 -0.2917235 1.2488
0.4060315 -0.5382279 2.310847
nan nan nan
0.2324857 -0.2944819 1.255866
nan nan nan
nan nan nan
0.2877382 -0.3416891 1.452973
0.2552972 -0.2969784 1.259508
0.327292 -0.3731129 1.582981
0.2554744 -0.2855301 1.206857
0.2925947 -0.3207288 1.354925
0.2641099 -0.2840427 1.196711
nan nan nan
1.008305 -1.04497 4.418778
1.046898 -1.065592 4.498542
nan nan nan
0.06005058 -0.05901523 0.2374217
nan nan nan
0.08930639 -0.08484107 0.3450367
nan nan nan
1.097545 -1.009033 4.2125
nan nan nan
nan nan nan
nan nan nan
nan nan nan
nan nan nan
nan nan nan
0.1640344 -0.1355067 0.5475438
nan nan nan
nan nan nan
0.531929 -0.4211104 1.713867
0.5948964 -0.4645082 1.887151
0.6039603 -0.4652127 1.88543
0.6040034 -0.4590425 1.855662
0.5964931 -0.4473698 1.803623
0.6118816 -0.4529513 1.821582
0.627583 -0.4586183 1.839702
0.6450532 -0.4654181 1.862191
0.6515144 -0.464204 1.852288
0.6597252 -0.464251 1.84739
0.6642193 -0.4617134 1.8321
0.6553614 -0.4500675 1.780531
0.6872009 -0.4663149 1.8399
0.6786276 -0.4550797 1.790031
-1.376709 -0.8566186 3.394538
nan nan nan
nan nan nan
-1.096504 -0.7057954 2.821053
-1.124914 -0.7325019 2.937073
-1.078536 -0.7105648 2.857236
-1.02166 -0.6811068 2.746318
-1.043315 -0.703923 2.846871
-1.004532 -0.6860218 2.782037
-0.9951455 -0.6880017 2.797871
-1.020078 -0.7140543 2.912208
-0.9974357 -0.7070431 2.891267
-0.9660189 -0.693552 2.843391
-0.9251654 -0.6728475 2.765347
-0.926461 -0.6826554 2.813003
-0.8931186 -0.6668618 2.754568
-0.8765164 -0.6633096 2.746604
-0.8591723 -0.6590911 2.735687
-0.8417367 -0.6546841 2.723796
-0.8273236 -0.6525369 2.721181
-0.8161439 -0.6529152 2.729024
-0.7969315 -0.646785 2.709393
-0.7676672 -0.6321965 2.653886
-0.7718777 -0.6451516 2.714391
-0.7318026 -0.6209235 2.617591
-0.7282975 -0.6274563 2.650783
-0.7202302 -0.6302013 2.667888
-0.6987717 -0.6211303 2.634607
-0.6828925 -0.6168061 2.621339
-0.6683592 -0.6135756 2.612584
-0.6567712 -0.6129864 2.615001
-0.6442205 -0.6114635 2.613308
-0.6295744 -0.6078649 2.602573
-0.612743 -0.601993 2.581898
-0.5995647 -0.5995647 2.575906
-0.5845056 -0.5951329 2.561129
-0.5686474 -0.5897084 2.5419
-0.5576308 -0.5891948 2.543807
-0.5458937 -0.5878856 2.542164
-0.5409835 -0.594021 2.572805
-0.5123044 -0.5737809 2.488521
-0.5059193 -0.5781934 2.511463
-0.4872282 -0.5684328 2.472445
-0.4811286 -0.5732596 2.497056
-0.4661349 -0.5674686 2.475118
-0.4553287 -0.5666313 2.474767
-0.4475472 -0.5696055 2.491071
-0.4381265 -0.5705833 2.498548
-0.4244764 -0.5659685 2.481322
-0.4113412 -0.5618318 2.466077
-0.4004546 -0.5606365 2.463696
-0.3896165 -0.5594494 2.461262
-0.3762529 -0.554478 2.441995
-0.3580653 -0.5419367 2.389073
-0.3512768 -0.5464305 2.411497
-0.3402597 -0.5444155 2.404997
-0.3278679 -0.5400177 2.38782
-0.3248339 -0.5512332 2.439968
-0.3097168 -0.5420043 2.401132
-0.3001889 -0.5422767 2.40448
-0.2852182 -0.5324073 2.362537
-0.2796717 -0.5400556 2.398627
-0.2633467 -0.5266934 2.340862
-0.2538638 -0.5265322 2.34194
-0.2454967 -0.5287621 2.353644
-0.2351009 -0.5266261 2.345752
-0.2264587 -0.5284037 2.355309
-0.2137045 -0.5203241 2.320629
-0.2062343 -0.52496 2.342863
-0.1965159 -0.5240424 2.340134
-0.1858404 -0.5203531 2.324889
-0.1789115 -0.5273181 2.357425
-0.1671233 -0.5199391 2.325455
-0.1577886 -0.5197741 2.325827
-0.1478005 -0.5173017 2.315753
-0.1382388 -0.5160915 2.311286
-0.1283254 -0.5133017 2.299639
-0.1171943 -0.5048371 2.262359
-0.1077826 -0.5029856 2.254786
-0.09873662 -0.5026591 2.254019
-0.08897215 -0.498244 2.234757
-0.08157366 -0.5075694 2.277385
-0.07212602 -0.5048822 2.265788
-0.06285763 -0.502861 2.25713
-0.05406519 -0.5046084 2.265411
-0.04489254 -0.5027964 2.257571
-0.03576615 -0.500726 2.248501
-0.02665388 -0.497539 2.234328
-0.01789135 -0.5009579 2.249912
-0.008759314 -0.4905216 2.20289
-0 -0.493357 2.21572
0.008781708 -0.4917757 2.208551
0.01759906 -0.4927736 2.212967
0.0265089 -0.4948329 2.222113
0.03541726 -0.4958415 2.226455
0.04378452 -0.4903866 2.201567
0.05185845 -0.4840121 2.172477
0.0607863 -0.4862904 2.182373
0.07001327 -0.4900929 2.199081
0.07912231 -0.4923165 2.208602
0.08713257 -0.4879424 2.188313
0.08595833 -0.437606 1.960823
nan nan nan
0.1147866 -0.4944655 2.215644
nan nan nan
0.1740995 -0.6499712 2.913838
0.150142 -0.5254971 2.352623
0.07097775 -0.2338091 1.039907
0.1085324 -0.3376563 1.506161
0.1862259 -0.5488764 2.454273
0.06479727 -0.1814324 0.8031459
nan nan nan
0.1324028 -0.3370253 1.500012
0.1446536 -0.3522 1.567092
0.1344962 -0.3138245 1.394181
0.2475478 -0.5545071 2.470551
nan nan nan
nan nan nan
nan nan nan
nan nan nan
nan nan nan
0.2088798 -0.3773312 1.669612
0.2180837 -0.3816465 1.687335
nan nan nan
0.2576969 -0.4244419 1.874316
nan nan nan
nan nan nan
0.2106473 -0.3188176 1.400749
0.2275847 -0.335388 1.472557
0.1407811 -0.2021473 0.8820022
0.2258414 -0.3161779 1.384426
nan nan nan
0.213413 -0.2845506 1.24182
0.2494801 -0.3249044 1.417793
nan nan nan
0.2684337 -0.3340508 1.454257
nan nan nan
0.2894737 -0.3449048 1.497795
nan nan nan
0.2168978 -0.2478832 1.070157
0.3487088 -0.3905539 1.690189
0.3086802 -0.338943 1.46309
nan nan nan
0.2845599 -0.3006671 1.292487
nan nan nan
nan nan nan
0.04166444 -0.04166444 0.1683204
nan nan nan
0.04871831 -0.04703837 0.1908031
0.7326944 -0.6954387 2.973782
nan nan nan
0.8365142 -0.7679474 3.272782
0.1496699 -0.1351857 0.5655566
0.08510485 -0.07564876 0.3107924
nan nan nan
0.9576622 -0.8250628 3.489216
0.1082822 -0.09187582 0.3775343
0.3525781 -0.2946922 1.233642
nan nan nan
0.3249948 -0.2637639 1.098113
1.244554 -0.995643 4.167567
nan nan nan
nan nan nan
0.5786716 -0.4439124 1.838798
0.5914616 -0.4475925 1.849638
0.5883139 -0.4392744 1.810568
0.6075671 -0.447681 1.840798
0.6240471 -0.4538524 1.861559
0.5975896 -0.4290386 1.754573
0.6379298 -0.4522034 1.84503
0.6486059 -0.4540242 1.847517
0.6539981 -0.4521468 1.834793
0.660532 -0.4510951 1.825403
0.6763092 -0.456305 1.841393
0.6753575 -0.4502383 1.811533
0.6825461 -0.4496774 1.803973
-1.104311 -0.6748569 2.725958
nan nan nan
-1.082725 -0.6767032 2.750597
-1.101327 -0.6962412 2.839003
-1.076277 -0.6883165 2.815011
-1.062633 -0.6875861 2.820346
-1.072147 -0.7020012 2.888114
-1.101783 -0.7300971 3.012784
-0.9958938 -0.6679776 2.763248
-0.9872135 -0.6703302 2.780722
-0.9683679 -0.665753 2.7692
-0.9590803 -0.6677142 2.784851
-0.964968 -0.6804261 2.845581
-0.9367367 -0.6690977 2.805277
-0.9095142 -0.6582011 2.766444
-0.9073867 -0.6654169 2.803909
-0.8868929 -0.6591772 2.78435
-0.8594648 -0.647542 2.741618
-0.837482 -0.6397431 2.714896
-0.807541 -0.6255599 2.660646
-0.8033608 -0.6312121 2.690941
-0.7886932 -0.6286685 2.686077
-0.8063102 -0.6521627 2.793037
-0.7657572 -0.6286067 2.697567
-0.7403909 -0.6169924 2.653138
-0.7266999 -0.6149 2.64961
-0.704066 -0.6050567 2.612337
-0.6959408 -0.6075674 2.628478
-0.6773497 -0.6008747 2.6045
-0.6633535 -0.5981056 2.597431
-0.6470178 -0.5930997 2.580449
-0.6327242 -0.5898277 2.570885
-0.6220453 -0.5898706 2.575719
-0.6104154 -0.5889973 2.576438
-0.5949986 -0.5843737 2.560548
-0.5833894 -0.5833894 2.560545
-0.5666512 -0.5771447 2.53721
-0.5577037 -0.5787492 2.548416
-0.5495743 -0.5812806 2.563665
-0.5283719 -0.5698128 2.516749
-0.5154309 -0.566974 2.507938
-0.5035975 -0.5652624 2.504022
-0.4989941 -0.5717641 2.536604
-0.4834487 -0.5657377 2.513274
-0.4693403 -0.5611678 2.496297
-0.4616805 -0.5642762 2.513543
-0.4512914 -0.5641143 2.516091
-0.4374343 -0.559509 2.498623
-0.4271509 -0.5593643 2.501059
-0.4107362 -0.5509876 2.466395
-0.4002462 -0.5503386 2.466356
-0.3886733 -0.5481291 2.4592
-0.3692011 -0.5343701 2.399829
-0.3599024 -0.53499 2.405204
-0.3455031 -0.5278519 2.375428
-0.3414982 -0.53664 2.417604
-0.3262113 -0.5276946 2.379437
-0.3168102 -0.528017 2.383151
-0.3084623 -0.5301695 2.395104
-0.2969188 -0.5267916 2.381876
-0.2867459 -0.5257008 2.378952
-0.2746603 -0.5209075 2.359099
-0.2626213 -0.5158632 2.337999
-0.2587524 -0.5270883 2.39095
-0.2464834 -0.5214073 2.366795
-0.2331253 -0.5128756 2.329522
-0.22564 -0.5170916 2.350355
-0.2160196 -0.5165687 2.349487
-0.2033031 -0.5082577 2.312931
-0.1966448 -0.515022 2.345249
-0.1859877 -0.5114663 2.330286
-0.1758661 -0.5090863 2.320625
-0.1657271 -0.5063884 2.309432
-0.1575333 -0.5096666 2.325565
-0.1471834 -0.5059431 2.309527
-0.1384567 -0.5076748 2.318446
-0.1291897 -0.5075309 2.318697
-0.1175535 -0.4973418 2.272749
-0.1083691 -0.4966918 2.27053
-0.0987038 -0.493519 2.256655
-0.09052205 -0.4978713 2.277302
-0.08042224 -0.4914693 2.248447
-0.07295989 -0.5015993 2.295554
-0.06326573 -0.4970879 2.275264
-0.05393421 -0.494397 2.26328
-0.04449489 -0.4894437 2.240822
-0.03567431 -0.4905217 2.246054
-0.02675827 -0.4905683 2.24648
-0.01764284 -0.4851781 2.221819
-0.00887193 -0.4879561 2.234696
-0 -0.482706 2.210559
0.008840127 -0.4862069 2.226645
0.01749678 -0.4811614 2.20333
0.0264791 -0.4854501 2.222922
0.03499107 -0.4811273 2.202818
0.04365258 -0.4801784 2.198185
0.05208928 -0.4774851 2.185467
0.06060183 -0.4761572 2.178977
0.06857664 -0.4714645 2.156953
0.07812083 -0.4774051 2.183775
0.08624402 -0.4743422 2.169136
0.09607188 -0.4803594 2.196175
0.08263835 -0.3787591 1.728698
nan nan nan
0.1429076 -0.5614228 2.566126
0.09580704 -0.3512925 1.600745
nan nan nan
nan nan nan
0.2632774 -0.8044586 3.675566
0.1695203 -0.4907168 2.236475
nan nan nan
0.1468079 -0.384497 1.74797
0.1303738 -0.3259345 1.479114
0.1956702 -0.4679069 2.127079
nan nan nan
0.2290182 -0.5038401 2.28828
nan nan nan
nan nan nan
0.2923976 -0.5743524 2.604386
0.1865384 -0.3537797 1.598523
0.1932472 -0.3542865 1.599508
nan nan nan
0.1995264 -0.3429359 1.5452
0.1475736 -0.2459561 1.103965
0.2080433 -0.3365406 1.513342
nan nan nan
0.1995718 -0.3049013 1.367262
0.2103383 -0.312665 1.400906
0.348898 -0.504984 2.267226
nan nan nan
nan nan nan
0.5393289 -0.72349 3.242164
0.2218687 -0.2905423 1.293571
0.1846865 -0.2362269 1.048296
0.1084482 -0.1355603 0.5959118
0.2393641 -0.2925561 1.29765
0.2239784 -0.2678003 1.185281
nan nan nan
nan nan nan
0.1809511 -0.2031084 0.8923824
0.2269831 -0.2496814 1.09801
0.181123 -0.1953287 0.8551831
nan nan nan
0.2697175 -0.2798956 1.226541
0.04436461 -0.04518618 0.1880636
1.004173 -1.004173 4.415681
1.014452 -0.9963373 4.373741
1.047433 -1.010681 4.429218
1.069687 -1.014358 4.437541
1.093513 -1.019376 4.45152
0.6212583 -0.5694869 2.477257
nan nan nan
1.151368 -1.021374 4.435196
0.09446267 -0.08246742 0.3468515
nan nan nan
0.09361333 -0.07921128 0.331321
0.1170591 -0.09754926 0.409808
nan nan nan
nan nan nan
nan nan nan
nan nan nan
nan nan nan
0.5524338 -0.421998 1.786938
0.5988569 -0.4511936 1.90682
0.5924023 -0.440299 1.856002
0.607908 -0.4457992 1.874703
0.6123334 -0.443136 1.858767
0.6051069 -0.4322192 1.80807
0.624038 -0.4400268 1.836162
0.6339143 -0.4413328 1.836785
0.6410102 -0.4406946 1.829189
0.6479891 -0.4399926 1.821271
0.6639963 -0.4453633 1.838526
0.6686086 -0.4430539 1.823772
0.6841802 -0.4479751 1.838868
0.6695299 -0.4332252 1.77276
-1.11981 -0.6718859 2.769691
-1.09428 -0.6639452 2.745438
-1.10793 -0.6798664 2.820262
-1.095654 -0.680061 2.82968
-1.06666 -0.6697632 2.795028
-1.094406 -0.6952694 2.910484
-1.034392 -0.6649666 2.791228
-1.073343 -0.6983198 2.940195
-1.010891 -0.6657087 2.810244
-1.032349 -0.6882327 2.913761
-0.9733828 -0.6570334 2.788727
-0.9804313 -0.6701682 2.852323
-0.9158574 -0.6340551 2.705106
-0.9206084 -0.6456215 2.761791
-0.906303 -0.6439521 2.761626
-0.8960907 -0.6451852 2.773851
-0.871265 -0.635788 2.739992
-0.8609202 -0.6368451 2.751187
-0.8275639 -0.6206728 2.687381
-0.8236085 -0.6264065 2.71862
-0.8044279 -0.6205587 2.699283
-0.7871576 -0.6160364 2.685533
-0.7693344 -0.610942 2.669087
-0.7451625 -0.6005788 2.629279
-0.7308879 -0.5979992 2.623478
-0.7167235 -0.5954319 2.617588
-0.6959563 -0.5872132 2.586554
-0.6901635 -0.5915686 2.611025
-0.6815989 -0.5936506 2.625378
-0.6590968 -0.5834628 2.585071
-0.6525009 -0.5872509 2.606813
-0.6404532 -0.5861775 2.606811
-0.6159963 -0.5735138 2.554837
-0.608099 -0.5760939 2.570904
-0.5962853 -0.5749895 2.570378
-0.5799112 -0.5693673 2.549427
-0.5617567 -0.5617567 2.519346
-0.5534101 -0.5638518 2.532864
-0.5382777 -0.5589806 2.514843
-0.5286998 -0.5597998 2.522425
-0.5154563 -0.5566928 2.512136
-0.5058458 -0.5574628 2.519323
-0.4904315 -0.5517354 2.496899
-0.4839797 -0.5560618 2.52009
-0.4589041 -0.5387136 2.444441
-0.4610121 -0.5532145 2.51389
-0.4460841 -0.5474668 2.490878
-0.4326065 -0.5432734 2.474833
-0.4237866 -0.5448685 2.485186
-0.4100402 -0.5400529 2.466069
-0.399426 -0.539225 2.465137
-0.3855608 -0.5338534 2.443227
-0.3694678 -0.5250332 2.405312
-0.359943 -0.5253221 2.409211
-0.3446497 -0.5169745 2.3732
-0.3345686 -0.5161915 2.371969
-0.3279043 -0.5207891 2.395526
-0.3190003 -0.5220006 2.403387
-0.3088047 -0.5211079 2.401443
-0.298536 -0.5200304 2.398565
-0.2869981 -0.5165965 2.384677
-0.2752489 -0.5125325 2.367768
-0.2657402 -0.5124989 2.369483
-0.2556295 -0.5112589 2.365521
-0.2460594 -0.5110464 2.366263
-0.2360865 -0.5099469 2.362806
-0.2257606 -0.5079615 2.355145
-0.2157555 -0.5065565 2.350112
-0.2039356 -0.5005692 2.323629
-0.19467 -0.50058 2.325043
-0.1869397 -0.5047373 2.345758
-0.1740146 -0.4945679 2.299484
-0.166776 -0.5003279 2.327567
-0.1555368 -0.4940581 2.299346
-0.1482101 -0.5002091 2.329155
-0.136714 -0.4921704 2.292499
-0.1287183 -0.4964851 2.313602
-0.1174391 -0.4878241 2.273869
-0.1084192 -0.4878864 2.274926
-0.09876311 -0.484837 2.261335
-0.08998664 -0.4859278 2.267087
-0.08068304 -0.4840982 2.259083
-0.07141033 -0.4820197 2.249847
-0.06275108 -0.4840799 2.259966
-0.05356395 -0.4820755 2.250953
-0.04460459 -0.4817296 2.24966
-0.03568198 -0.4817067 2.249824
-0.02656272 -0.4781289 2.233237
-0.01761854 -0.4757006 2.221985
-0.008696117 -0.4695904 2.193385
-0 -0.4714314 2.202059
0.008734966 -0.4716882 2.203234
0.01758322 -0.474747 2.217508
0.02630136 -0.4734245 2.211151
0.03516396 -0.4747135 2.216995
0.04346843 -0.4694591 2.192065
0.05160705 -0.4644634 2.168297
0.05978374 -0.4611889 2.152555
0.06887611 -0.4649137 2.169597
0.07578609 -0.4547165 2.121275
0.08361454 -0.4515185 2.105738
0.08347309 -0.409777 1.909469
nan nan nan
0.07355454 -0.3055343 1.419881
0.1091516 -0.4210133 1.960161
0.1269373 -0.4569744 2.127738
0.1989652 -0.6715075 3.130713
nan nan nan
0.08341982 -0.2502595 1.15849
0.1479516 -0.4204942 1.95336
0.133852 -0.3614003 1.676342
0.1429794 -0.3676612 1.704628
0.1598975 -0.3924758 1.819383
0.1318808 -0.3096331 1.432046
nan nan nan
0.143778 -0.3105605 1.434473
nan nan nan
0.1451258 -0.2902516 1.33799
nan nan nan
0.1760688 -0.3278522 1.510456
0.1841515 -0.3314726 1.526007
0.2011028 -0.3503081 1.611999
nan nan nan
0.221147 -0.3618769 1.662627
nan nan nan
0.1951581 -0.3011011 1.378816
0.2832316 -0.4248474 1.94824
0.1053674 -0.1537794 0.6971374
nan nan nan
0.2337532 -0.3236582 1.47673
0.2435605 -0.3288067 1.498703
0.2360764 -0.3109298 1.414943
0.2288188 -0.2941956 1.336567
0.1608402 -0.2019854 0.9129149
nan nan nan
0.3008767 -0.361052 1.636687
0.2309589 -0.2711257 1.224545
0.2324671 -0.2670899 1.204494
0.2573506 -0.2895194 1.304775
0.2618097 -0.288525 1.298383
0.2148978 -0.2320896 1.040636
0.2890242 -0.3060256 1.373729
0.1678855 -0.1743426 0.7764643
nan nan nan
0.1750158 -0.1750158 0.7770011
0.04090469 -0.04016097 0.1691564
nan nan nan
nan nan nan
nan nan nan
nan nan nan
nan nan nan
0.101755 -0.09007823 0.38939
1.134854 -0.9884211 4.378858
nan nan nan
nan nan nan
nan nan nan
nan nan nan
nan nan nan
nan nan nan
0.3314831 -0.2594216 1.12427
1.27584 -0.9842194 4.287848
0.4174431 -0.3174919 1.372262
nan nan nan
0.5680353 -0.4201905 1.811328
0.5980275 -0.4363984 1.877103
0.5913395 -0.4257644 1.826589
0.6208037 -0.4410973 1.888055
0.6199977 -0.4348036 1.856222
0.6278968 -0.4346977 1.850967
0.6297188 -0.4304407 1.827905
0.6397913 -0.4318592 1.829058
0.6482422 -0.4321615 1.825365
0.6557077 -0.4318075 1.818812
0.6606208 -0.4298015 1.805215
0.6835097 -0.4393991 1.840504
0.6786882 -0.4311666 1.800556
-1.082281 -0.6373429 2.681521
-1.079942 -0.6431118 2.714394
-1.102642 -0.6640911 2.811983
-1.099532 -0.6698297 2.845013
-1.082236 -0.6669595 2.841258
-1.066844 -0.6652086 2.842123
-1.058749 -0.6680204 2.862464
-1.04648 -0.6682344 2.871557
-1.002083 -0.6476877 2.790723
-0.9828112 -0.6430739 2.778413
-0.9691149 -0.6420387 2.781454
-0.9542181 -0.6401716 2.780738
-0.9343661 -0.6348897 2.764938
-0.9224325 -0.634921 2.772209
-0.9148563 -0.6379918 2.792735
-0.8986847 -0.6350705 2.78682
-0.8801242 -0.6303591 2.77283
-0.8638022 -0.6271441 2.76526
-0.8356576 -0.6151369 2.7185
-0.8068867 -0.6023239 2.667807
-0.7954192 -0.6022459 2.67353
-0.7832971 -0.601663 2.676897
-0.7716193 -0.6014092 2.681628
-0.7628742 -0.6034676 2.696632
-0.7293705 -0.5857067 2.622448
-0.7104527 -0.5792921 2.598968
-0.7030548 -0.5822173 2.617447
-0.6901661 -0.580616 2.615406
-0.6757839 -0.5776862 2.607222
-0.6651188 -0.5778901 2.613126
-0.6447983 -0.5695718 2.580163
-0.6258053 -0.562164 2.551121
-0.6196321 -0.5662155 2.574198
-0.6024466 -0.5601697 2.551059
-0.591341 -0.559662 2.553115
-0.5772352 -0.5562448 2.54172
-0.5666937 -0.5561994 2.545688
-0.5516001 -0.5516001 2.528599
-0.5378114 -0.5481539 2.516676
-0.5258076 -0.5464275 2.512563
-0.5161449 -0.5471136 2.519502
-0.5024306 -0.5434453 2.506195
-0.4823439 -0.5325881 2.459404
-0.4852445 -0.5471906 2.530673
-0.4709939 -0.5426669 2.513067
-0.4594943 -0.5411822 2.509481
-0.4474299 -0.5389497 2.502309
-0.4318286 -0.5322538 2.474185
-0.4219293 -0.5324345 2.47806
-0.4089612 -0.5286571 2.46333
-0.3934847 -0.5213673 2.432019
-0.38565 -0.5240884 2.447526
-0.3751469 -0.5232311 2.446178
-0.3686285 -0.5280353 2.471367
-0.3472145 -0.5111769 2.394564
-0.339881 -0.5146769 2.413448
-0.3287143 -0.5124075 2.405083
-0.3191614 -0.5125926 2.408211
-0.3076745 -0.5095858 2.396189
-0.2966724 -0.5072141 2.387074
-0.2878569 -0.5085472 2.395404
-0.2760806 -0.504561 2.378478
-0.2675027 -0.5063444 2.388803
-0.255065 -0.500683 2.363755
-0.242784 -0.4949059 2.338049
-0.2357128 -0.4997112 2.362512
-0.2260542 -0.499203 2.361679
-0.2160103 -0.4977629 2.356342
-0.2033764 -0.4899522 2.320608
-0.1938147 -0.4891513 2.318149
-0.1823517 -0.4832321 2.291231
-0.1750569 -0.4883167 2.316682
-0.1660015 -0.4887822 2.320061
-0.156169 -0.4868798 2.312077
-0.1456749 -0.4825482 2.292423
-0.1367244 -0.483093 2.295981
-0.1273095 -0.4819575 2.291449
-0.1178317 -0.4803907 2.284789
-0.1082588 -0.478143 2.274806
-0.09909569 -0.477461 2.272244
-0.09085394 -0.4815258 2.292329
-0.08079637 -0.4758008 2.265512
-0.07158659 -0.4742611 2.258656
-0.06218024 -0.4707932 2.242505
-0.05342786 -0.4719461 2.248413
-0.04476776 -0.4745382 2.261156
-0.03551129 -0.4705246 2.242203
-0.02670309 -0.4717545 2.248303
-0.01764158 -0.4675018 2.22808
-0.008744175 -0.4634412 2.208716
-0 -0.4611939 2.197979
0.008640638 -0.4579537 2.182427
0.01757569 -0.4657558 2.219716
0.02627598 -0.4642089 2.212159
0.0350877 -0.464912 2.21532
0.04352045 -0.4613167 2.197837
0.05169801 -0.4566657 2.175244
0.05987361 -0.4533287 2.158891
0.06879016 -0.4557348 2.169976
0.0787942 -0.4640103 2.209088
0.08512112 -0.4511419 2.14696
0.09247808 -0.4455762 2.119737
0.1080045 -0.4770198 2.269435
0.09024527 -0.367923 1.747193
0.1808649 -0.684703 3.260224
0.09112018 -0.3219579 1.52633
0.08418534 -0.2788639 1.319942
nan nan nan
nan nan nan
0.1459629 -0.4071597 1.929747
0.1321007 -0.3500667 1.656668
0.2287093 -0.5772186 2.737577
nan nan nan
0.1490905 -0.3435564 1.622793
nan nan nan
0.1987932 -0.4214417 1.990675
0.1314927 -0.2680427 1.261033
0.2190918 -0.4300691 2.028763
0.1627314 -0.3080272 1.448697
0.2048926 -0.3744588 1.762222
0.2206808 -0.3898695 1.833719
0.1720202 -0.2940989 1.379278
0.2159817 -0.3577196 1.678658
0.2285918 -0.3671322 1.721566
0.1534081 -0.2391361 1.116309
0.2143999 -0.3246626 1.518185
nan nan nan
0.3497256 -0.5009583 2.344049
0.2529819 -0.3528432 1.645852
0.277196 -0.3767023 1.755995
0.2561354 -0.3393794 1.579094
0.253848 -0.3281451 1.52467
0.2229399 -0.2813289 1.303949
0.1223063 -0.1507496 0.6925321
nan nan nan
nan nan nan
0.2337173 -0.2692829 1.241255
nan nan nan
0.2944289 -0.3250985 1.496779
0.2416037 -0.2613265 1.199194
0.2148814 -0.2277743 1.042219
0.287806 -0.2990925 1.37008
0.4715944 -0.4806635 2.205401
nan nan nan
0.7599405 -0.7458676 3.417701
0.0500942 -0.04827258 0.2100943
nan nan nan
1.009178 -0.9383589 4.281115
0.3332574 -0.3045283 1.379178
nan nan nan
0.8560079 -0.7561404 3.42908
0.6117451 -0.5315162 2.402509
nan nan nan
0.6175929 -0.5195623 2.339181
1.01453 -0.8401576 3.782143
nan nan nan
nan nan nan
1.201472 -0.9504184 4.253603
1.226668 -0.9560798 4.269841
nan nan nan
1.282196 -0.9708055 4.31669
0.1482318 -0.1106519 0.4807272
0.4376506 -0.3221594 1.418265
0.5968104 -0.4333007 1.907001
0.6111149 -0.4376904 1.921808
0.6042612 -0.4270113 1.870052
0.6119702 -0.4267687 1.86433
0.6161121 -0.4240772 1.847805
0.6210082 -0.421967 1.833812
0.6244757 -0.418952 1.815851
0.6353554 -0.420923 1.819578
0.6466202 -0.4230971 1.824072
0.6552699 -0.4235281 1.820902
0.6677086 -0.4263681 1.828047
0.6744992 -0.4255768 1.819428
0.6642456 -0.4141767 1.765249
-1.044368 -0.6034124 2.591952
-1.148586 -0.6710842 2.892954
-1.110919 -0.6564523 2.838352
-1.084153 -0.6479993 2.81016
-1.075717 -0.6504336 2.829188
-1.057173 -0.6467413 2.821333
-1.036631 -0.6417243 2.807456
-1.069586 -0.6701021 2.940457
-1.018785 -0.646059 2.842478
-1.010288 -0.6485798 2.86147
-0.9578303 -0.6225897 2.753781
-0.960628 -0.6323121 2.80441
-0.9299506 -0.619967 2.756629
-0.923234 -0.6234827 2.779457
-0.9056587 -0.6196612 2.769333
-0.8847883 -0.6134533 2.748283
-0.8734384 -0.6137675 2.756406
-0.8598726 -0.612512 2.757335
-0.836072 -0.6038297 2.724484
-0.8184832 -0.5994525 2.710901
-0.7962564 -0.5915048 2.680873
-0.7862911 -0.5925673 2.691688
-0.7659445 -0.5857223 2.666274
-0.7510607 -0.5829127 2.659117
-0.7317642 -0.5765415 2.635456
-0.7175127 -0.5740102 2.629243
-0.6977484 -0.5669206 2.601876
-0.6859338 -0.5661677 2.603553
-0.6754258 -0.5664862 2.610082
-0.6632287 -0.5653753 2.609897
-0.6527414 -0.5657092 2.616311
-0.623851 -0.5498347 2.547212
-0.6088125 -0.5458319 2.533102
-0.6067768 -0.5535508 2.573579
-0.583797 -0.5420972 2.524404
-0.5804912 -0.5488279 2.560168
-0.5660163 -0.5450528 2.54664
-0.5527124 -0.5422838 2.5377
-0.5387807 -0.5387807 2.525176
-0.5248125 -0.535103 2.511693
-0.5120701 -0.5325528 2.5034
-0.5058001 -0.5367675 2.526981
-0.495254 -0.5365252 2.529428
-0.4828777 -0.5342477 2.522137
-0.463702 -0.5241848 2.477764
-0.4572355 -0.528361 2.500891
-0.4416161 -0.52191 2.473393
-0.4322322 -0.5226994 2.480254
-0.4177861 -0.5172591 2.457312
-0.4084731 -0.5180634 2.464071
-0.396429 -0.5153577 2.45397
-0.3856981 -0.514264 2.451484
-0.3687546 -0.5046116 2.407876
-0.3606086 -0.5068013 2.420933
-0.3467117 -0.5008059 2.394613
-0.3418773 -0.5079321 2.431267
-0.3296083 -0.5041069 2.415197
-0.3186241 -0.5020744 2.407658
-0.3084038 -0.5011562 2.405403
-0.298516 -0.5007364 2.405476
-0.2896758 -0.5021047 2.414112
-0.277566 -0.4977044 2.394799
-0.2635139 -0.489383 2.356411
-0.2550785 -0.4912623 2.367287
-0.2447934 -0.4895868 2.360883
-0.2358442 -0.4905561 2.367225
-0.2253598 -0.4882796 2.357758
-0.2143151 -0.4845384 2.341097
-0.2020427 -0.4775555 2.308599
-0.1946462 -0.481981 2.331454
-0.1835927 -0.4773411 2.310176
-0.177354 -0.4853899 2.350557
-0.1647638 -0.4759843 2.305933
-0.1549207 -0.4738751 2.296742
-0.145575 -0.4731188 2.294072
-0.1388559 -0.4813671 2.335235
-0.1273872 -0.4731526 2.296077
-0.1186233 -0.474493 2.303444
-0.1083684 -0.4695964 2.280314
-0.09901509 -0.4680713 2.273567
-0.08973321 -0.4666127 2.267078
-0.08100598 -0.4680346 2.274595
-0.07138724 -0.464017 2.255481
-0.06247541 -0.464103 2.256349
-0.0532221 -0.4612582 2.242835
-0.04461971 -0.464045 2.256783
-0.03552474 -0.4618217 2.246183
-0.02652264 -0.4597258 2.236144
-0.01769541 -0.4600807 2.238027
-0.008799355 -0.4575665 2.225823
-0 -0.4513882 2.195643
0.008681764 -0.4514517 2.195924
0.01751902 -0.4554946 2.215604
0.02627216 -0.4553842 2.214917
0.03496496 -0.4545445 2.210608
0.04284974 -0.4456373 2.166806
0.05188131 -0.4496381 2.186044
0.0601371 -0.4467328 2.17147
0.06901582 -0.4486028 2.180174
0.07631566 -0.4409349 2.142229
0.0886861 -0.4611678 2.24049
0.09101623 -0.4302585 2.088971
0.1080436 -0.468189 2.273445
nan nan nan
nan nan nan
0.08633681 -0.299301 1.447644
0.06684355 -0.2172416 1.047158
0.1284132 -0.3927933 1.901797
0.1405507 -0.4060353 1.965374
0.1123041 -0.3073585 1.484209
nan nan nan
0.1291783 -0.3198701 1.543425
0.1721902 -0.406995 1.965799
0.1158093 -0.2618298 1.259781
0.1365011 -0.2957523 1.423574
0.1230838 -0.2560143 1.229933
nan nan nan
0.4879416 -0.9397394 4.538882
nan nan nan
0.2447842 -0.4389234 2.110607
0.2528814 -0.4383278 2.106016
0.1669374 -0.280024 1.34014
0.1143035 -0.1857432 0.8842879
0.2181149 -0.3436962 1.644546
0.1348928 -0.2063067 0.9816419
0.1235017 -0.1834883 0.870952
nan nan nan
0.1878654 -0.264027 1.255728
nan nan nan
0.277771 -0.3703614 1.762291
0.2483909 -0.3229081 1.533299
0.2655683 -0.3368183 1.597997
0.1142454 -0.1414467 0.6636217
0.1711664 -0.2069919 0.9752608
0.1866867 -0.2206298 1.038964
0.2416472 -0.2792368 1.316299
0.1032699 -0.1167398 0.5428932
0.2536633 -0.2806487 1.319469
0.2296474 -0.2487847 1.166729
nan nan nan
0.2418754 -0.2515504 1.17642
0.2515449 -0.2564772 1.197888
0.1364489 -0.1364489 0.6309407
nan nan nan
0.07519775 -0.07241265 0.3283775
nan nan nan
1.03448 -0.9605888 4.482071
0.2078798 -0.1896447 0.8741528
nan nan nan
nan nan nan
1.122421 -0.9727652 4.507137
nan nan nan
nan nan nan
0.1589978 -0.1312363 0.5946785
0.7600034 -0.6175027 2.835047
0.6685665 -0.5348532 2.449102
0.2786991 -0.2195811 0.9966297
0.2715914 -0.2107874 0.9542358
0.05379516 -0.04113748 0.1765887
nan nan nan
1.281022 -0.9516168 4.319996
nan nan nan
0.5194799 -0.3751799 1.688467
0.5951806 -0.4239643 1.905019
0.6184422 -0.434581 1.948335
0.5911958 -0.4098957 1.832532
0.6081485 -0.4161016 1.855832
0.6140205 -0.4146632 1.844704
0.6205058 -0.4136705 1.83553
0.6311982 -0.4154723 1.838752
0.6357203 -0.4132182 1.823848
0.6417402 -0.4119814 1.813433
0.6584526 -0.4175554 1.833066
0.654969 -0.410342 1.79616
0.6671564 -0.4130016 1.802734
0.6711152 -0.4105645 1.786847
-1.084887 -0.6147694 2.697815
-1.154104 -0.6613405 2.912123
-1.11974 -0.6489402 2.866092
-1.135546 -0.6656649 2.949155
-1.095305 -0.6495415 2.886017
-1.053575 -0.632145 2.81665
-1.037716 -0.6300415 2.815339
-1.042684 -0.6406854 2.871221
-1.005796 -0.6255559 2.810973
-1.007164 -0.6341401 2.857529
-0.9722496 -0.6198092 2.800232
-0.957024 -0.6178257 2.798644
-0.9335327 -0.6103867 2.772023
-0.9177682 -0.6078724 2.767637
-0.9015659 -0.6049982 2.761438
-0.898066 -0.6106849 2.794404
-0.8726987 -0.6014546 2.758687
-0.8548083 -0.5971949 2.745611
-0.8286477 -0.5869588 2.704684
-0.8091106 -0.5811921 2.684167
-0.7971873 -0.580808 2.68845
-0.7844568 -0.579816 2.689794
-0.7678381 -0.5758785 2.677266
-0.7532508 -0.57337 2.671247
-0.7305058 -0.5644817 2.635169
-0.7179205 -0.5632915 2.634991
-0.697848 -0.5560976 2.606431
-0.6867146 -0.5559119 2.610701
-0.6741832 -0.5545701 2.60941
-0.6620819 -0.5535439 2.609497
-0.6465051 -0.5495293 2.595298
-0.6315253 -0.5458947 2.582744
-0.6022521 -0.5295666 2.509608
-0.6063337 -0.5425091 2.575703
-0.5970353 -0.5437286 2.585919
-0.5789514 -0.5368458 2.557296
-0.5639283 -0.532599 2.541112
-0.5495912 -0.5288519 2.527176
-0.5390736 -0.5287068 2.530416
-0.5260757 -0.5260757 2.521599
-0.513608 -0.5238802 2.514761
-0.5045621 -0.5251564 2.524575
-0.487644 -0.5181217 2.494131
-0.4791226 -0.519899 2.506185
-0.4678561 -0.51871 2.503798
-0.4538625 -0.5143775 2.486051
-0.4429752 -0.5134485 2.484718
-0.4318755 -0.5122244 2.481858
-0.4166439 -0.5059247 2.454169
-0.4067267 -0.5059283 2.457085
-0.3946331 -0.5031572 2.446372
-0.3842725 -0.5025102 2.445939
-0.3698015 -0.4963126 2.418251
-0.3656138 -0.5039541 2.458247
-0.3523069 -0.4991015 2.436952
-0.3398598 -0.4952242 2.420327
-0.3291388 -0.4937082 2.415199
-0.3193791 -0.493586 2.416841
-0.3084181 -0.4915413 2.408944
-0.2985304 -0.4911307 2.409013
-0.2837026 -0.4822944 2.367448
-0.2762119 -0.4857519 2.386431
-0.262342 -0.4778373 2.34919
-0.2506994 -0.4735434 2.329723
-0.2446572 -0.4799046 2.362875
-0.2342689 -0.4779087 2.354629
-0.2244147 -0.4768813 2.351101
-0.2150643 -0.4768817 2.352596
-0.2046274 -0.4743635 2.341532
-0.1965926 -0.4774391 2.358151
-0.185565 -0.4731908 2.338352
-0.1743263 -0.4679286 2.313429
-0.1649919 -0.467477 2.312329
-0.1568775 -0.4706324 2.329102
-0.1460609 -0.4655691 2.304935
-0.1364862 -0.4640532 2.29834
-0.1262642 -0.4599626 2.278858
-0.1176264 -0.4614575 2.28712
-0.1089169 -0.4628969 2.295051
-0.09928522 -0.4603224 2.282917
-0.09231899 -0.4708269 2.335923
-0.08053922 -0.4563889 2.264509
-0.07102919 -0.4528111 2.24717
-0.06254892 -0.4557136 2.262096
-0.05310193 -0.4513665 2.240792
-0.04462524 -0.4551774 2.260135
-0.03605583 -0.4597119 2.283036
-0.02687518 -0.456878 2.2691
-0.01785756 -0.4553677 2.26171
-0.008921589 -0.455001 2.259969
-0 -0.4538598 2.254302
0.008811112 -0.4493667 2.231841
0.01759194 -0.4485944 2.227898
0.02614177 -0.4444101 2.206865
0.03473471 -0.4428676 2.198963
0.04309718 -0.4395912 2.182351
0.05198756 -0.4418943 2.193527
0.06094426 -0.4440225 2.203768
0.0684145 -0.4361424 2.164026
0.07707892 -0.4367805 2.166723
0.08693342 -0.4433605 2.198984
0.09042393 -0.4192382 2.07814
0.1123043 -0.4772931 2.366784
0.1109591 -0.435301 2.156831
0.1242054 -0.4524626 2.241512
0.1324444 -0.450311 2.229939
0.1096634 -0.349552 1.727697
0.1561771 -0.4685313 2.318653
0.1460685 -0.4138606 2.045804
0.3379139 -0.9070321 4.495121
0.19779 -0.5043645 2.493159
0.1594114 -0.387142 1.909988
nan nan nan
0.2778704 -0.6161475 3.042987
nan nan nan
0.2492442 -0.5084583 2.505879
0.166887 -0.3273553 1.608129
0.2247694 -0.4245644 2.08757
0.2043155 -0.3721461 1.827042
0.2621411 -0.4610067 2.264276
0.1853561 -0.3151054 1.542784
0.2345544 -0.3858798 1.890293
0.1883937 -0.3002524 1.467009
0.185456 -0.2866139 1.398589
0.2473567 -0.371035 1.812235
0.259201 -0.3776929 1.843188
nan nan nan
0.2312137 -0.3187 1.550372
0.2251396 -0.3021611 1.46777
nan nan nan
nan nan nan
nan nan nan
nan nan nan
0.1841341 -0.2183917 1.051578
0.2250937 -0.260904 1.25694
nan nan nan
0.2461796 -0.2729383 1.312026
0.2484795 -0.2696267 1.294216
nan nan nan
nan nan nan
0.2958311 -0.3017477 1.4436
nan nan nan
0.3644284 -0.3574201 1.706911
0.2774531 -0.2669832 1.270124
0.113921 -0.1075921 0.5041776
nan nan nan
nan nan nan
nan nan nan
nan nan nan
1.087171 -0.9397581 4.454478
0.5229328 -0.4444929 2.097041
0.1809339 -0.1512726 0.7047814
nan nan nan
1.11736 -0.9045294 4.255095
nan nan nan
1.193456 -0.9364038 4.387957
nan nan nan
0.1486786 -0.1131732 0.5180435
0.2134024 -0.1600517 0.7357931
0.08902347 -0.06579996 0.2950719
nan nan nan
1.295848 -0.9308208 4.305792
nan nan nan
0.5893124 -0.4117114 1.889283
0.5878751 -0.4051572 1.854585
0.5973747 -0.4062148 1.854935
0.6031381 -0.4047375 1.843573
0.6115644 -0.4050621 1.840413
0.6192515 -0.4048952 1.834935
0.6240498 -0.4028676 1.820927
0.6367757 -0.4059445 1.830053
0.643999 -0.4054808 1.823017
0.6597338 -0.4103222 1.839858
0.6632861 -0.4075613 1.822302
0.6815509 -0.4137987 1.845118
0.6691203 -0.4014722 1.784651
-1.182279 -0.656822 2.946219
-1.132889 -0.6364545 2.863399
-1.143282 -0.6495921 2.931707
-1.097636 -0.630825 2.855273
-1.091766 -0.6347479 2.881639
-1.038948 -0.6111458 2.782177
-1.058973 -0.6303413 2.878181
-1.022937 -0.6162269 2.82144
-1.008969 -0.6152252 2.824678
-0.9949579 -0.6141716 2.827542
-0.9861746 -0.6163591 2.845294
-0.9594042 -0.6072178 2.810344
-0.9243989 -0.5925633 2.749377
-0.9250554 -0.6006853 2.794346
-0.8993362 -0.5916685 2.759144
-0.8867591 -0.5911727 2.763628
-0.8758295 -0.5917767 2.77317
-0.8635584 -0.5914783 2.778368
-0.8386738 -0.5824124 2.742003
-0.8109227 -0.5710723 2.694563
-0.8021027 -0.5729305 2.70946
-0.7879663 -0.57099 2.706216
-0.7673603 -0.5642354 2.679869
-0.7568208 -0.5647916 2.688232
-0.72902 -0.5522878 2.633953
-0.7186502 -0.5528077 2.641841
-0.6981102 -0.5453986 2.61151
-0.6861411 -0.5445564 2.612589
-0.6709414 -0.5410817 2.60085
-0.658384 -0.539659 2.598881
-0.6494194 -0.5411829 2.611073
-0.6300812 -0.5339671 2.580772
-0.6059836 -0.5223996 2.529093
-0.6100586 -0.5351391 2.595545
-0.5908517 -0.5275462 2.5629
-0.5825462 -0.5295874 2.577135
-0.5637199 -0.5219629 2.543992
-0.5518563 -0.5206192 2.541442
-0.5388152 -0.5180916 2.532973
-0.5255819 -0.5152763 2.522967
-0.51265 -0.51265 2.513766
-0.5019326 -0.5121761 2.515062
-0.4940962 -0.5146836 2.530998
-0.4742049 -0.5044733 2.483975
-0.4595487 -0.4995094 2.462722
-0.4559512 -0.5066124 2.501173
-0.4397945 -0.4997665 2.470365
-0.4324944 -0.5029005 2.489016
-0.4193937 -0.4992782 2.473992
-0.4059113 -0.4950138 2.455648
-0.3963045 -0.4953806 2.460287
-0.383131 -0.4911935 2.442108
-0.3732364 -0.4911006 2.44428
-0.3592785 -0.4855115 2.418865
-0.3501081 -0.4862612 2.425082
-0.3416149 -0.4880213 2.436301
-0.3302817 -0.4857084 2.427017
-0.319163 -0.4835804 2.418568
-0.3085877 -0.4821683 2.413629
-0.2986588 -0.4817076 2.413397
-0.2873 -0.4788333 2.400931
-0.2733575 -0.4713061 2.36491
-0.2629255 -0.4695098 2.357681
-0.2535876 -0.4696067 2.35993
-0.2414289 -0.4642864 2.334738
-0.2341423 -0.4682845 2.356565
-0.2238979 -0.4664539 2.348857
-0.2151925 -0.4678097 2.357207
-0.2046472 -0.4651073 2.344938
-0.1928282 -0.4591147 2.31591
-0.1863371 -0.4658427 2.351304
-0.1752622 -0.4612162 2.329048
-0.1648831 -0.4580086 2.313909
-0.1558544 -0.4583951 2.31695
-0.1456826 -0.455258 2.302022
-0.1371375 -0.4571249 2.312458
-0.1290457 -0.4608774 2.332429
-0.119903 -0.4611655 2.334726
-0.1075196 -0.4479985 2.268486
-0.09960813 -0.4527642 2.293435
-0.09040199 -0.4520099 2.290227
-0.08077212 -0.448734 2.274114
-0.07170652 -0.4481658 2.271727
-0.06252451 -0.4466037 2.264215
-0.05346902 -0.4455752 2.259359
-0.04470773 -0.4470773 2.267341
-0.03553427 -0.4441784 2.252831
-0.02662156 -0.4436926 2.25056
-0.0179023 -0.4475576 2.270414
-0.008739574 -0.4369787 2.216564
-0 -0.4388559 2.226164
0.008780687 -0.4390343 2.227045
0.01749351 -0.4373378 2.218308
0.02617046 -0.4361744 2.212231
0.03502677 -0.4378347 2.220492
0.04369739 -0.4369739 2.215842
0.05136128 -0.4280106 2.169843
0.06044365 -0.4317404 2.188478
0.06978883 -0.4361802 2.210666
0.07795878 -0.4331044 2.194505
0.08626503 -0.4313251 2.184897
0.09552243 -0.4341929 2.198893
0.1029915 -0.429131 2.172465
0.09509709 -0.365758 1.849335
0.126527 -0.4518821 2.286681
0.1055256 -0.3517522 1.776762
0.1396038 -0.436262 2.205488
0.1294153 -0.3806332 1.921956
0.1290896 -0.3585822 1.809104
0.1310777 -0.3449412 1.738989
0.1032564 -0.258141 1.297828
nan nan nan
nan nan nan
0.2519564 -0.5477314 2.761878
0.1395473 -0.2907237 1.459632
nan nan nan
nan nan nan
nan nan nan
0.06179294 -0.1103445 0.5453219
0.125028 -0.2155654 1.075431
nan nan nan
0.06309898 -0.1017725 0.5008347
0.5915889 -0.9243577 4.637661
0.1665605 -0.2523644 1.256681
nan nan nan
nan nan nan
0.6627015 -0.9204187 4.600563
0.287957 -0.389131 1.936409
0.08762982 -0.1153024 0.5650924
0.7092658 -0.909315 4.530689
0.7303338 -0.9129173 4.543642
0.09093153 -0.1108921 0.5412017
0.748035 -0.8905178 4.421635
0.2094871 -0.2435897 1.199684
0.1095308 -0.1244668 0.6066233
0.1138943 -0.1265492 0.616168
0.05963692 -0.06482274 0.3096041
nan nan nan
0.1223678 -0.1274664 0.6181895
0.8781779 -0.8960999 4.408941
0.9405033 -0.9405033 4.621315
nan nan nan
0.07824911 -0.07523954 0.3580367
0.0853047 -0.08047614 0.383145
0.07562254 -0.07002087 0.3313344
0.9996457 -0.9087687 4.430567
1.029204 -0.9189321 4.47283
1.036356 -0.9090846 4.417287
1.0679 -0.9206036 4.465668
nan nan nan
0.8430441 -0.7025368 3.392988
1.118089 -0.9164667 4.421521
0.9266196 -0.7472739 3.596341
nan nan nan
0.2101564 -0.1641847 0.7781348
1.163153 -0.8947328 4.282984
nan nan nan
1.24877 -0.9319183 4.443103
1.248775 -0.918217 4.368328
0.09388287 -0.06803106 0.3123221
nan nan nan
1.287396 -0.9066166 4.284549
nan nan nan
0.5975216 -0.4092613 1.918898
0.5974665 -0.4036936 1.888131
0.600185 -0.4001233 1.866796
0.6011887 -0.3955189 1.840628
0.611928 -0.3973559 1.844586
0.6163925 -0.3951234 1.82947
0.6247149 -0.3953891 1.825947
0.6347151 -0.3966969 1.827178
0.6511085 -0.4019189 1.846399
0.6613219 -0.403245 1.84746
0.6686557 -0.4028046 1.840295
0.6769035 -0.4029188 1.835612
0.6753682 -0.3972754 1.804537
-1.176565 -0.6405746 2.936978
-1.136574 -0.6257541 2.87768
-1.144526 -0.6372927 2.939923
-1.08617 -0.6117509 2.830134
-1.074005 -0.611933 2.839373
-1.05851 -0.6101999 2.839558
-1.014728 -0.5919245 2.762075
-1.007082 -0.5945425 2.782175
-1.013754 -0.6057797 2.842848
-1.00047 -0.6052226 2.847979
-0.9703527 -0.594341 2.804076
-0.9518849 -0.5904096 2.792804
-0.9207913 -0.5784458 2.743078
-0.9229867 -0.5873553 2.792606
-0.9028416 -0.5820953 2.774428
-0.8831193 -0.5769714 2.756673
-0.8730483 -0.5780995 2.768763
-0.8541004 -0.5733003 2.752201
-0.8206522 -0.5584995 2.687101
-0.7957518 -0.5491808 2.648122
-0.7854667 -0.5498267 2.657207
-0.7894835 -0.5606478 2.715702
-0.7680407 -0.5534412 2.686444
-0.759912 -0.5557565 2.703455
-0.7346152 -0.5453962 2.658364
-0.7180593 -0.5413063 2.643726
-0.695536 -0.5325198 2.605829
-0.6869388 -0.5342858 2.619635
-0.6684562 -0.528296 2.595114
-0.6530173 -0.5245548 2.581505
-0.6453662 -0.5270492 2.598616
-0.6322496 -0.5250887 2.59358
-0.6233187 -0.5265969 2.605658
-0.6045194 -0.5196745 2.575701
-0.5869579 -0.5135883 2.549707
-0.5818762 -0.5183988 2.577956
-0.5611354 -0.5091784 2.535997
-0.5531147 -0.5113702 2.550992
-0.5368915 -0.5059169 2.527567
-0.5238809 -0.5033366 2.518415
-0.5168182 -0.5064818 2.537961
-0.5016445 -0.5016445 2.517231
-0.4877074 -0.497868 2.501705
-0.4771182 -0.4974211 2.502877
-0.4602712 -0.4902889 2.470123
-0.4500847 -0.4900922 2.472345
-0.4463331 -0.4970528 2.510806
-0.4276626 -0.4873364 2.464544
-0.4170684 -0.4865798 2.463662
-0.4037909 -0.4825793 2.446174
-0.3957529 -0.4847973 2.460269
-0.3848118 -0.4834816 2.456277
-0.3745595 -0.4829846 2.456379
-0.3610505 -0.478148 2.434204
-0.3499592 -0.4763333 2.427378
-0.3389471 -0.474526 2.420498
-0.3301828 -0.4758516 2.4296
-0.3180941 -0.4723216 2.413712
-0.308157 -0.4718654 2.413517
-0.2958645 -0.4676568 2.393947
-0.2845274 -0.4647282 2.38086
-0.2713308 -0.4584555 2.350452
-0.2609701 -0.4566978 2.343204
-0.251894 -0.457141 2.347232
-0.241332 -0.454818 2.336914
-0.2329588 -0.4565993 2.347721
-0.2211236 -0.4514607 2.322696
-0.2149714 -0.4579826 2.357898
-0.2042296 -0.454875 2.343228
-0.1931726 -0.450736 2.323132
-0.1832284 -0.4489097 2.314934
-0.1737186 -0.4480112 2.311474
-0.1646708 -0.4482706 2.313952
-0.1554341 -0.448016 2.313702
-0.1464916 -0.4486306 2.317901
-0.1362031 -0.44493 2.299626
-0.1260672 -0.4412353 2.281305
-0.1184515 -0.4464711 2.309331
-0.1081132 -0.4414624 2.284045
-0.1001001 -0.4459003 2.307817
-0.08904029 -0.4362974 2.258489
-0.08046672 -0.4380966 2.268414
-0.07101239 -0.4349508 2.252543
-0.06247632 -0.4373343 2.265394
-0.05304028 -0.4331623 2.244054
-0.04455002 -0.4365902 2.262228
-0.03554914 -0.435477 2.256696
-0.02644604 -0.431952 2.23854
-0.01770304 -0.4337245 2.247919
-0.008790332 -0.4307262 2.232387
-0 -0.4320473 2.239299
0.008717539 -0.4271594 2.213806
0.01749405 -0.4286042 2.221246
0.02615368 -0.4271769 2.213666
0.03491509 -0.4277098 2.216241
0.04347561 -0.426061 2.207393
0.05181433 -0.4231503 2.191921
0.06056093 -0.4239265 2.19559
0.06870105 -0.4207939 2.178854
0.07870135 -0.4284852 2.218395
0.08274403 -0.4054458 2.097974
0.09107994 -0.4057198 2.098822
0.07062326 -0.2883784 1.488035
0.1243176 -0.4685816 2.424264
0.1273177 -0.445612 2.304047
0.1366086 -0.4462547 2.306507
nan nan nan
nan nan nan
0.3163653 -0.8612166 4.456136
0.1639074 -0.4227086 2.180279
0.09809674 -0.240337 1.234034
0.2121266 -0.4949619 2.552203
nan nan nan
nan nan nan
nan nan nan
0.1535979 -0.3010519 1.544024
0.09527069 -0.1795486 0.9155962
nan nan nan
0.1697659 -0.2970904 1.520286
0.10304 -0.1741021 0.8854825
0.5490247 -0.8967404 4.604784
0.06847902 -0.108241 0.5452657
nan nan nan
0.1363873 -0.2025145 1.028355
0.6336569 -0.9132114 4.673221
0.05459552 -0.07643372 0.380248
0.06592323 -0.08972885 0.4479375
nan nan nan
nan nan nan
0.7091968 -0.8910422 4.536522
nan nan nan
nan nan nan
0.1239059 -0.1445568 0.7238542
0.08530815 -0.09721162 0.4824259
0.7998498 -0.8907419 4.508574
0.1998299 -0.2175926 1.091296
0.0724415 -0.07716594 0.3790963
0.07070486 -0.07371358 0.3611263
nan nan nan
0.1578496 -0.1578496 0.784215
0.09998325 -0.09798359 0.481733
nan nan nan
0.0933859 -0.08799824 0.4301571
0.1217838 -0.1125926 0.5527206
0.9622868 -0.8731863 4.357169
0.9821829 -0.8750357 4.35938
1.01127 -0.8848612 4.401189
0.09594896 -0.08248244 0.3991558
nan nan nan
nan nan nan
0.1914965 -0.1563888 0.7630015
0.09149117 -0.0734929 0.3518109
0.07096675 -0.05608663 0.2652494
0.2380571 -0.1851555 0.9003269
nan nan nan
1.211227 -0.9130787 4.467338
0.1429831 -0.1061541 0.5081696
nan nan nan
nan nan nan
0.2226172 -0.1580905 0.7575261
0.1371101 -0.09597707 0.4543627
nan nan nan
1.05617 -0.7187821 3.461561
nan nan nan
0.5805973 -0.3844495 1.837446
0.5917181 -0.3865892 1.843271
0.5998028 -0.386715 1.839338
0.6065903 -0.386012 1.831376
0.6162014 -0.3871009 1.831894
0.6228858 -0.3863469 1.823562
0.6310071 -0.3864919 1.819438
0.6481362 -0.3920824 1.840968
0.6648189 -0.3972699 1.860386
0.6649948 -0.3925874 1.833222
0.6831678 -0.3985145 1.855822
0.6759925 -0.3896899 1.809269
-1.202562 -0.6413662 3.007182
-1.181749 -0.6373479 2.997535
-1.146321 -0.6252661 2.949471
-1.079855 -0.5957823 2.818293
-1.055856 -0.5893151 2.795819
-1.051208 -0.5936234 2.824537
-1.018223 -0.5818418 2.776176
-1.031522 -0.596543 2.854625
-0.9892172 -0.5790539 2.778272
-0.9875174 -0.5851955 2.815507
-0.9805822 -0.5883493 2.838322
-0.9565 -0.5811646 2.8109
-0.942045 -0.57972 2.811138
-0.9317812 -0.5808506 2.823803
-0.8859729 -0.5595618 2.726682
-0.8811318 -0.5639244 2.754773
-0.8613189 -0.5586933 2.735691
-0.846873 -0.556848 2.733072
-0.8412248 -0.5608165 2.759028
-0.8258061 -0.5582914 2.75282
-0.8060326 -0.5527081 2.731277
-0.7886794 -0.5486466 2.71708
-0.7903591 -0.5579006 2.769059
-0.7567181 -0.5421265 2.696131
-0.7473583 -0.5435333 2.708763
-0.7214628 -0.5327725 2.660308
-0.706655 -0.5299913 2.651636
-0.6821501 -0.5197334 2.605172
-0.664124 -0.5141605 2.582049
-0.6578982 -0.5176904 2.60473
-0.6486541 -0.5189233 2.615757
-0.6316707 -0.5139017 2.594991
-0.6143588 -0.5084349 2.571784
-0.6008334 -0.505965 2.563645
-0.5969849 -0.5117013 2.597211
-0.5764238 -0.5030608 2.55737
-0.563584 -0.5009636 2.550767
-0.5475576 -0.4959013 2.528854
-0.5352246 -0.4940535 2.523268
-0.5246779 -0.4938145 2.525836
-0.5114716 -0.4910128 2.515131
-0.4982758 -0.4881068 2.503764
-0.4890892 -0.4890892 2.512338
-0.4769087 -0.4870557 2.50526
-0.4638383 -0.4840052 2.492813
-0.4511176 -0.4811921 2.481475
-0.434766 -0.4742902 2.44881
-0.4216695 -0.4707009 2.433184
-0.4188809 -0.478721 2.477805
-0.4054163 -0.4746337 2.459416
-0.3976218 -0.4771461 2.4753
-0.3800368 -0.4677376 2.428939
-0.3697749 -0.4670841 2.428127
-0.3577959 -0.4641676 2.415402
-0.3486667 -0.464889 2.421613
-0.3381884 -0.4638013 2.418282
-0.328844 -0.4642502 2.422926
-0.3194454 -0.4646478 2.427234
-0.3037667 -0.4556501 2.382119
-0.2975377 -0.4607035 2.410729
-0.2828581 -0.452573 2.369941
-0.2725228 -0.4510722 2.363928
-0.2615937 -0.4484464 2.351907
-0.2502691 -0.4449228 2.335063
-0.2403198 -0.4436673 2.330097
-0.2314265 -0.4443389 2.335235
-0.2191461 -0.4382922 2.304807
-0.2125072 -0.4434932 2.333754
-0.2014082 -0.439436 2.313681
-0.1938896 -0.4431763 2.334803
-0.1827124 -0.4385097 2.311351
-0.1738096 -0.4390981 2.31566
-0.1648206 -0.4395217 2.319035
-0.155376 -0.4387088 2.315791
-0.1467378 -0.4402134 2.32478
-0.1350423 -0.4321354 2.282838
-0.1263003 -0.4330296 2.288454
-0.117629 -0.4343226 2.296133
