# .PCD v.7 - Point Cloud Data file format
FIELDS x y z
SIZE 4 4 4
TYPE F F F
COUNT 1 1 1
WIDTH 1643
HEIGHT 1
VIEWPOINT 0 0 0 1 0 0 0
POINTS 1643
DATA ascii
-0.160029 -0.1244669 2.311232
-0.151709 -0.1249368 2.320953
-0.1413128 -0.1236487 2.297793
-0.1323585 -0.1235346 2.296493
-0.1233239 -0.1233239 2.293332
-0.1145774 -0.1233911 2.29531
-0.1064781 -0.1242245 2.311562
-0.09626535 -0.1225195 2.280287
-0.08644826 -0.1210276 2.252928
-0.07825755 -0.121734 2.266643
-0.07003154 -0.1225552 2.28246
-0.06089132 -0.1217826 2.268393
-0.05262905 -0.1228011 2.287803
-0.04326862 -0.1211521 2.257214
-0.03472981 -0.1215543 2.264981
-0.02567007 -0.1197936 2.232187
-0.01705956 -0.1194169 2.22526
-0.008490163 -0.1188623 2.214947
-0 -0.1182273 2.203079
0.008494812 -0.1189274 2.216166
0.01705956 -0.1194169 2.22526
0.02534235 -0.1182643 2.203543
0.03380473 -0.1183166 2.204344
0.04228075 -0.1183861 2.205418
0.05074621 -0.1184078 2.205544
0.05859692 -0.1171938 2.182487
0.06721391 -0.1176243 2.190166
0.0747527 -0.116282 2.164615
0.08291407 -0.1160797 2.160354
0.09001137 -0.1145599 2.1314
0.09292942 -0.1084177 2.015968
nan nan nan
0.06824008 -0.06824008 1.263866
0.09332792 -0.08710605 1.615906
nan nan nan
nan nan nan
0.0537689 -0.04182024 0.7689391
0.1071616 -0.07896122 1.461399
nan nan nan
0.0961117 -0.06407446 1.182592
0.05008473 -0.0318721 0.5821778
0.427921 -0.2604737 4.837589
0.04867686 -0.02839483 0.516834
nan nan nan
nan nan nan
0.05190322 -0.02691278 0.4883471
0.05426339 -0.0271317 0.4920807
0.05570858 -0.02689379 0.4873233
0.0590101 -0.02753805 0.4989089
0.5709797 -0.2578618 4.76419
0.08942726 -0.03912443 0.7125607
0.1032704 -0.04381168 0.7986612
nan nan nan
0.07855966 -0.03142386 0.5686247
0.1040583 -0.04046712 0.7349153
0.1181908 -0.04472084 0.8126279
nan nan nan
0.1060522 -0.03807 0.6887405
0.716088 -0.2506308 4.593803
0.0847875 -0.02895183 0.5199611
0.04118218 -0.01372739 0.2402364
nan nan nan
0.6921713 -0.2202363 4.018121
0.7092744 -0.2206631 4.021328
nan nan nan
0.7122415 -0.212157 3.85668
0.7503027 -0.2188383 3.973575
nan nan nan
0.824041 -0.2307315 4.179389
0.9165053 -0.2515897 4.552166
0.8053388 -0.216822 3.916144
nan nan nan
nan nan nan
nan nan nan
nan nan nan
nan nan nan
0.1031151 -0.02488986 0.4353921
1.080638 -0.2564226 4.584938
1.075831 -0.2510271 4.480839
nan nan nan
nan nan nan
1.138824 -0.2530719 4.494177
1.168662 -0.2556449 4.531843
1.173751 -0.252808 4.473216
1.208696 -0.25639 4.528273
1.227071 -0.2564029 4.519857
1.246277 -0.2565864 4.514286
1.26824 -0.257324 4.518295
1.303013 -0.2606025 4.566726
0.05503928 -0.01085281 0.1787863
1.309996 -0.2547214 4.444776
1.281715 -0.2458084 4.279618
nan nan nan
0.4994968 -0.09323939 1.609027
0.5699765 -0.1049957 1.809206
0.5886253 -0.1070228 1.840062
0.6011346 -0.107896 1.850767
0.6040127 -0.1070402 1.831561
0.6136937 -0.1073964 1.833171
0.6278256 -0.1085131 1.847711
0.6334456 -0.1081492 1.83678
0.6443235 -0.1086811 1.841077
0.6495126 -0.1082521 1.828921
0.6568015 -0.1081791 1.822766
-1.007882 -0.145583 2.610841
-1.094611 -0.1598871 2.876883
-1.082081 -0.1598529 2.884539
-1.041127 -0.1555707 2.8149
-1.038146 -0.1569291 2.847477
-1.007119 -0.15403 2.802301
-1.004777 -0.1555013 2.83678
-0.9770831 -0.1530371 2.799018
-0.9525792 -0.1510186 2.769116
-0.9430451 -0.1513529 2.782346
-0.9400086 -0.1527514 2.815192
-0.9107567 -0.1498714 2.768689
-0.8920083 -0.1486681 2.753
-0.8613797 -0.1454277 2.699131
-0.8449502 -0.144531 2.68866
-0.8276038 -0.1434513 2.674586
-0.8144277 -0.1430751 2.673522
-0.8077776 -0.1438508 2.69399
-0.7892407 -0.1425018 2.674376
-0.7850742 -0.143746 2.703534
-0.7678729 -0.142605 2.687547
-0.7453651 -0.1404311 2.651786
-0.7334128 -0.1402113 2.652895
-0.7080485 -0.1373826 2.60422
-0.6983592 -0.1375556 2.612507
-0.6812465 -0.1362493 2.592441
-0.6726276 -0.1366275 2.604443
-0.661718 -0.136545 2.607543
-0.6464991 -0.1355563 2.593136
-0.6315925 -0.1346017 2.579231
-0.6197574 -0.1342808 2.577391
-0.6062391 -0.1335781 2.568073
-0.5976369 -0.1339531 2.579468
-0.5852159 -0.1334703 2.574182
-0.5701052 -0.1323459 2.556333
-0.5599797 -0.1323588 2.560436
-0.5470604 -0.1316997 2.551378
-0.5342529 -0.1310432 2.54225
-0.5218016 -0.1304504 2.534249
-0.5035717 -0.1283614 2.496899
-0.4933207 -0.1282634 2.498317
-0.4826886 -0.1280602 2.497594
-0.4697269 -0.1272177 2.48424
-0.460049 -0.1272476 2.487905
-0.4467019 -0.1262418 2.47113
-0.436949 -0.1262297 2.473796
-0.4217358 -0.1246038 2.444578
-0.419279 -0.1267588 2.489825
-0.4040924 -0.1250762 2.459285
-0.388934 -0.1233206 2.427156
-0.3801406 -0.1235457 2.434097
-0.3698566 -0.1232855 2.43136
-0.3606394 -0.1233767 2.435513
-0.3463946 -0.1217062 2.40463
-0.3396503 -0.1226515 2.425595
-0.3242167 -0.1204234 2.383414
-0.3092127 -0.1182284 2.341753
-0.3093484 -0.1218645 2.416113
-0.2931608 -0.1190966 2.362852
-0.2844596 -0.1192895 2.368516
-0.2759064 -0.1195595 2.375662
-0.2671112 -0.1197395 2.380957
-0.2570504 -0.1193448 2.374703
-0.2466441 -0.1187546 2.364465
-0.2355742 -0.1177871 2.346599
-0.2276271 -0.1183661 2.359628
-0.2159026 -0.1169472 2.332567
-0.204078 -0.1153484 2.301807
-0.1946285 -0.1150078 2.296199
-0.1866757 -0.1155612 2.308477
-0.1781737 -0.1158129 2.314649
-0.169966 -0.1162925 2.325349
-0.1602616 -0.1157445 2.315342
-0.1519683 -0.116211 2.325674
-0.1418362 -0.1152419 2.307073
-0.1330585 -0.1153174 2.309426
-0.1232283 -0.1144263 2.292266
-0.114912 -0.114912 2.302768
-0.1056847 -0.1144917 2.29497
-0.09685541 -0.1144655 2.295053
-0.08763573 -0.1139264 2.284746
-0.07878218 -0.1137965 2.282628
-0.06930765 -0.1126249 2.259453
-0.06050208 -0.112361 2.254522
-0.05164694 -0.1119017 2.245595
-0.04343805 -0.1129389 2.266803
-0.03473518 -0.1128894 2.266038
-0.02577175 -0.1116776 2.241771
-0.01716919 -0.1115998 2.24033
-0.008603079 -0.11184 2.245255
-0 -0.1106916 2.222107
0.008540334 -0.1110243 2.228796
0.01704835 -0.1108143 2.22448
0.02548939 -0.110454 2.217084
0.03411699 -0.1108802 2.225504
0.04293255 -0.1116246 2.24029
0.05147959 -0.1115391 2.238281
0.05896451 -0.1095055 2.196935
0.06775488 -0.1101017 2.208575
0.07661674 -0.1106686 2.219571
0.08391596 -0.1090907 2.187281
0.09071723 -0.1072113 2.148877
0.1019595 -0.1104562 2.213673
0.2333158 -0.2333158 4.687338
0.0826569 -0.07675283 1.533786
nan nan nan
0.1102716 -0.08959563 1.791095
0.1002706 -0.07667749 1.530604
0.1058497 -0.07644703 1.525342
0.1078124 -0.0737664 1.470812
0.09895692 -0.064322 1.280442
0.1168557 -0.07233924 1.440772
0.4094422 -0.2419431 4.843211
0.02507114 -0.01417064 0.2727091
0.04092727 -0.02216894 0.4328661
0.08898283 -0.04627108 0.9154217
0.07511104 -0.03755552 0.7403756
0.07742051 -0.03727654 0.7343187
nan nan nan
nan nan nan
0.06127753 -0.0265536 0.5186931
0.1038871 -0.04356555 0.8577151
0.06091798 -0.02474793 0.4818995
0.07547808 -0.02973379 0.5808298
0.09855733 -0.03768369 0.7385809
0.09155268 -0.03400528 0.6647929
nan nan nan
0.1415771 -0.04974331 0.9760237
nan nan nan
0.1012018 -0.03373393 0.656941
nan nan nan
0.05174906 -0.01640824 0.3129893
0.1206767 -0.03735232 0.7263805
0.1530285 -0.04626444 0.9014467
nan nan nan
0.2742345 -0.0792233 1.548309
0.7712031 -0.2179487 4.274592
0.5057339 -0.1398838 2.736105
0.05513597 -0.01493266 0.2814646
nan nan nan
0.6882505 -0.1789452 3.490035
nan nan nan
nan nan nan
0.1015455 -0.02490739 0.4739077
0.1133187 -0.02728043 0.5193934
0.09583719 -0.02265243 0.4286882
nan nan nan
0.1377256 -0.03141109 0.5970335
1.033191 -0.2315774 4.467736
1.059419 -0.2334314 4.496358
1.061975 -0.2300946 4.424637
1.097075 -0.2338029 4.488581
1.102756 -0.2312231 4.431305
nan nan nan
0.0726365 -0.01475429 0.2710113
1.204736 -0.2409473 4.59337
1.215799 -0.2394755 4.556714
nan nan nan
1.248185 -0.2386236 4.522983
1.293998 -0.2437967 4.612107
1.270948 -0.2360331 4.455825
1.285006 -0.2352827 4.432441
1.109405 -0.2003093 3.763924
0.2787635 -0.04964281 0.922176
0.3244971 -0.05700625 1.058321
0.6062095 -0.1050763 1.95603
0.5751632 -0.09838319 1.826524
0.587791 -0.09923743 1.838196
0.6013171 -0.1002195 1.8521
0.6040084 -0.0993938 1.832312
0.6172473 -0.1003027 1.844626
0.6309386 -0.1012617 1.857712
0.6376868 -0.1010967 1.849939
0.6498209 -0.1017792 1.857675
0.6543727 -0.101272 1.843482
0.651762 -0.09968126 1.809472
-1.019094 -0.1358793 2.641094
-1.09714 -0.1479291 2.88473
-1.063568 -0.145032 2.836139
-1.053289 -0.1452812 2.849062
-1.03757 -0.1447772 2.847027
-1.012303 -0.1429134 2.817906
-1.00219 -0.1431699 2.830564
-0.9767329 -0.1412144 2.799112
-0.9638891 -0.1410569 2.803227
-0.940367 -0.1393136 2.775492
-0.9073635 -0.1361045 2.718078
-0.9092904 -0.1381201 2.765277
-0.8696022 -0.1337849 2.684587
-0.8561739 -0.1334297 2.683771
-0.840546 -0.1327178 2.675599
-0.8265829 -0.1322533 2.672279
-0.8140411 -0.1320067 2.673248
-0.799114 -0.1313612 2.665966
-0.7895539 -0.1315923 2.676433
-0.7753087 -0.1310381 2.670746
-0.7625074 -0.1307155 2.669665
-0.7528129 -0.130924 2.679373
-0.7306378 -0.1289361 2.643772
-0.7159888 -0.1282368 2.634502
-0.7006889 -0.127398 2.6222
-0.6856233 -0.1265766 2.6101
-0.6713941 -0.1258864 2.600567
-0.6604305 -0.1257963 2.603365
-0.6458948 -0.1250119 2.59161
-0.6278237 -0.1235063 2.564665
-0.620665 -0.124133 2.582078
-0.6076897 -0.1235979 2.575133
-0.5952951 -0.1231645 2.570197
-0.5818401 -0.1224927 2.560141
-0.5696981 -0.1220782 2.555367
-0.5588025 -0.1219206 2.555893
-0.5468603 -0.1215245 2.551298
-0.5373025 -0.1216534 2.557683
-0.519836 -0.1199622 2.525501
-0.5071052 -0.1193189 2.515332
-0.4939621 -0.1185509 2.502405
-0.4815325 -0.1179263 2.492402
-0.4691031 -0.1172758 2.481736
-0.462749 -0.1181487 2.503387
-0.4463757 -0.1164458 2.470115
-0.4365776 -0.1164207 2.472479
-0.4259641 -0.116172 2.469993
-0.4097049 -0.1143363 2.433485
-0.3969595 -0.113417 2.416439
-0.3955103 -0.1157591 2.469171
-0.3820137 -0.1146041 2.446918
-0.3685345 -0.1133952 2.423388
-0.3595742 -0.1135497 2.429044
-0.3449693 -0.1118819 2.395434
-0.338853 -0.112951 2.420623
-0.3239333 -0.1110628 2.382055
-0.3194203 -0.1127366 2.42018
-0.3036879 -0.110432 2.372419
-0.2980192 -0.1117572 2.402934
-0.2832334 -0.1096387 2.358974
-0.275595 -0.110238 2.373686
-0.2654577 -0.1098446 2.366862
-0.2568255 -0.1100681 2.37333
-0.2463961 -0.1095094 2.362785
-0.2379715 -0.109833 2.371305
-0.2281552 -0.1095145 2.365834
-0.2189255 -0.1094628 2.366091
-0.2093584 -0.1092305 2.362363
-0.1968867 -0.1073928 2.323661
-0.1895642 -0.1083224 2.345066
-0.1782474 -0.1069484 2.316293
-0.1698371 -0.1072655 2.324259
-0.1606213 -0.1070809 2.321244
-0.1510819 -0.106646 2.312717
-0.1415977 -0.1061983 2.303847
-0.1321023 -0.1056819 2.293416
-0.123964 -0.1062549 2.306691
-0.115051 -0.1062009 2.306235
-0.105813 -0.105813 2.298436
-0.09689636 -0.1057051 2.296692
-0.08711512 -0.1045381 2.271761
-0.07878438 -0.1050458 2.28335
-0.0699233 -0.104885 2.280283
-0.06122787 -0.1049621 2.282362
-0.05225509 -0.1045102 2.272826
-0.04328828 -0.1038919 2.259598
-0.03427146 -0.1028144 2.236275
-0.02570633 -0.1028253 2.236694
-0.01698616 -0.101917 2.216961
-0.008568493 -0.1028219 2.236825
-0 -0.1025566 2.231049
0.008539448 -0.1024734 2.229204
0.01696525 -0.1017915 2.214217
0.02545537 -0.1018215 2.214746
0.03391825 -0.1017547 2.213109
0.04250396 -0.1020095 2.218449
0.05102104 -0.1020421 2.21888
0.05842963 -0.1001651 2.177528
0.06627885 -0.09941828 2.160835
0.07463177 -0.09950902 2.162394
0.0832795 -0.09993539 2.171231
0.09217812 -0.100558 2.184299
0.09713592 -0.09713592 2.109014
nan nan nan
0.1081572 -0.09270617 2.011097
0.08835313 -0.0706825 1.530089
0.1033557 -0.07751679 1.678535
0.08529006 -0.06020474 1.300596
0.1050007 -0.07000046 1.513459
0.1066069 -0.06733068 1.454666
0.1112824 -0.06676945 1.441782
0.110463 -0.06312172 1.361728
0.04402865 -0.02401563 0.5107144
0.03018383 -0.01574808 0.3307639
0.03446568 -0.01723284 0.3628235
0.03957912 -0.01899798 0.4009236
nan nan nan
0.07423351 -0.03299267 0.7038317
0.1459414 -0.06254631 1.343691
0.1268787 -0.05250152 1.125276
0.05273256 -0.02109302 0.4448995
0.08228271 -0.03185137 0.6771656
0.06035075 -0.02263153 0.4774539
nan nan nan
nan nan nan
0.1162774 -0.03986655 0.8476913
nan nan nan
nan nan nan
nan nan nan
nan nan nan
nan nan nan
0.0531827 -0.01556567 0.3220832
0.1719666 -0.04913331 1.040317
nan nan nan
nan nan nan
nan nan nan
0.5225796 -0.1363251 2.893765
nan nan nan
0.5635213 -0.1408803 2.983555
0.2385785 -0.05842739 1.229085
nan nan nan
nan nan nan
nan nan nan
0.5244471 -0.1187428 2.496214
0.09669936 -0.02148875 0.4416869
0.1345301 -0.02935203 0.606608
nan nan nan
0.07938159 -0.01671191 0.3393713
1.045791 -0.2163705 4.523907
1.0652 -0.2166509 4.522513
nan nan nan
nan nan nan
nan nan nan
0.06494569 -0.01237061 0.2456597
0.07406812 -0.01388777 0.2766807
nan nan nan
1.194149 -0.2171181 4.47697
1.216034 -0.2177972 4.482453
1.229807 -0.2170248 4.457832
1.238454 -0.2153832 4.415246
0.06329212 -0.01085008 0.2110691
nan nan nan
1.025647 -0.1709411 3.480174
0.1490819 -0.02450662 0.4880218
nan nan nan
0.5100192 -0.08160308 1.644456
0.5563293 -0.08784147 1.767008
0.5925938 -0.09235227 1.854016
0.5972024 -0.09187728 1.840054
0.603727 -0.09170537 1.83216
0.6210959 -0.09316439 1.856919
0.625482 -0.092664 1.842265
0.6381814 -0.09339241 1.85211
0.6458185 -0.09337135 1.846891
0.6492031 -0.0927433 1.829553
0.6649081 -0.0938694 1.846937
-1.01392 -0.1239236 2.628614
-1.093421 -0.1351418 2.875984
-1.138277 -0.1422846 3.037296
-1.05019 -0.1327826 2.841696
-1.060404 -0.1356331 2.911006
-1.013802 -0.1311979 2.823128
-1.007724 -0.1319638 2.847293
-0.9730931 -0.1289642 2.789646
-0.9756027 -0.1308735 2.838454
-0.944912 -0.1283214 2.78996
-0.9261772 -0.1273494 2.775661
-0.8998678 -0.125298 2.737472
-0.8874455 -0.1251525 2.740872
-0.8667594 -0.1238228 2.718046
-0.8490746 -0.1228924 2.703804
-0.8308653 -0.1218602 2.687113
-0.8174673 -0.1215154 2.685472
-0.8024048 -0.1209103 2.677909
-0.790306 -0.1207412 2.679905
-0.7816368 -0.1210986 2.693549
-0.7544841 -0.1185618 2.642343
-0.7522195 -0.1199191 2.678149
-0.7260931 -0.1174562 2.62813
-0.713426 -0.1171296 2.625901
-0.7016156 -0.1169359 2.626548
-0.6882329 -0.1164702 2.620936
-0.6749491 -0.1160069 2.615249
-0.6571355 -0.1147379 2.591159
-0.6439767 -0.1142539 2.584712
-0.6272381 -0.1131085 2.563084
-0.6207991 -0.1138132 2.583462
-0.604964 -0.1127899 2.564344
-0.594467 -0.1127438 2.567416
-0.5787407 -0.1116868 2.547241
-0.5694294 -0.1118522 2.554955
-0.5587338 -0.1117468 2.556371
-0.5479383 -0.1116171 2.557141
-0.5270042 -0.1093782 2.509211
-0.5235668 -0.1107545 2.544487
-0.5071643 -0.1093884 2.516393
-0.4978996 -0.1095379 2.523208
-0.4851598 -0.1089134 2.51202
-0.4720353 -0.1081747 2.498069
-0.4619227 -0.1081096 2.499642
-0.4484285 -0.1072329 2.482265
-0.4351555 -0.1063713 2.465117
-0.4255028 -0.1063757 2.468033
-0.4175674 -0.1068196 2.481132
-0.4051284 -0.106105 2.467122
-0.3936422 -0.1056113 2.458168
-0.3806607 -0.1046817 2.438915
-0.3688586 -0.104037 2.426228
-0.3582017 -0.10369 2.420422
-0.3479588 -0.1034472 2.416982
-0.3415082 -0.1043497 2.440374
-0.328477 -0.1032356 2.416313
-0.3204976 -0.1036904 2.429066
-0.3054274 -0.1018091 2.386745
-0.2973528 -0.102215 2.398207
-0.2941252 -0.104367 2.450814
-0.2748313 -0.1007715 2.367736
-0.2658359 -0.1008343 2.370907
-0.2566683 -0.100834 2.372526
-0.2464336 -0.1003989 2.363798
-0.2361901 -0.09992657 2.354114
-0.2242588 -0.09867389 2.325873
-0.2158289 -0.09892155 2.333097
-0.2048651 -0.09797895 2.312044
-0.1983523 -0.09917614 2.34168
-0.1872722 -0.09809496 2.3172
-0.1782529 -0.09803911 2.316991
-0.1704392 -0.09867533 2.333168
-0.1610033 -0.09839088 2.327418
-0.151502 -0.09803069 2.319803
-0.1421979 -0.09776104 2.314281
-0.1322289 -0.09696789 2.296239
-0.1237729 -0.09725013 2.303732
-0.114662 -0.09702165 2.299012
-0.1059004 -0.09707537 2.300956
-0.09687421 -0.09687421 2.296775
-0.08738565 -0.09612421 2.279456
-0.07882909 -0.09634665 2.285259
-0.06952614 -0.09559845 2.267867
-0.06051436 -0.095094 2.256228
-0.05171329 -0.09480768 2.249736
-0.04326671 -0.09518677 2.259063
-0.03443548 -0.09469758 2.247626
-0.02605241 -0.0955255 2.267559
-0.01709606 -0.09402835 2.231968
-0.008601367 -0.09461503 2.246043
-0 -0.0941035 2.233863
0.008474739 -0.09322213 2.212808
0.01707748 -0.09392612 2.229529
0.02557493 -0.09377473 2.225789
0.03404977 -0.09363686 2.222322
0.04255219 -0.09361481 2.221566
0.05013777 -0.09191923 2.180845
0.05958713 -0.09363692 2.221481
0.0674345 -0.09272245 2.199294
0.07413302 -0.09060702 2.148436
0.0847707 -0.09324777 2.210902
0.0901747 -0.0901747 2.137144
0.1018552 -0.09336727 2.212626
0.1032366 -0.08735402 2.068785
nan nan nan
nan nan nan
nan nan nan
0.10199 -0.06599351 1.557922
0.1028964 -0.0628811 1.483297
nan nan nan
0.104522 -0.05748709 1.353863
nan nan nan
0.04325591 -0.02162795 0.5016881
0.02466415 -0.0117959 0.2682541
0.04958306 -0.02272557 0.5271474
nan nan nan
nan nan nan
0.1053133 -0.0429054 1.003593
nan nan nan
0.3938848 -0.1494046 3.518464
nan nan nan
0.06050306 -0.02146883 0.4950267
0.05619942 -0.01931855 0.4439487
nan nan nan
0.09027766 -0.02920747 0.6759724
nan nan nan
nan nan nan
nan nan nan
0.6856573 -0.1984797 4.643583
0.706789 -0.1993507 4.659539
0.06327963 -0.0174019 0.3958647
0.07813332 -0.0209626 0.4787159
nan nan nan
0.3894575 -0.09962866 2.313334
0.409052 -0.102263 2.37217
0.1047391 -0.0256029 0.584621
nan nan nan
0.6593458 -0.154315 3.572881
0.491593 -0.1126567 2.602046
nan nan nan
0.2159798 -0.04751556 1.088022
nan nan nan
0.5778387 -0.1222351 2.809433
0.07905687 -0.01640803 0.3666536
0.6858453 -0.1397092 3.203619
0.08790382 -0.01758076 0.3925119
0.1122084 -0.02204093 0.4942464
0.08589631 -0.01657648 0.3682838
0.063145 -0.01197578 0.2624534
1.06158 -0.1979217 4.508531
1.079854 -0.1979733 4.502314
nan nan nan
1.105617 -0.1961578 4.445815
1.139164 -0.1989017 4.500273
0.08923442 -0.01533716 0.3357975
1.171014 -0.1981716 4.467521
1.216797 -0.2027995 4.563596
1.195572 -0.1962879 4.40829
1.235628 -0.199881 4.480473
1.204537 -0.1920276 4.29545
1.26192 -0.1983017 4.427199
1.180792 -0.1829396 4.074916
0.1608101 -0.02456821 0.5361583
nan nan nan
0.4503455 -0.06694325 1.47428
0.5529233 -0.08109542 1.784377
0.5686279 -0.08230141 1.806955
0.5890974 -0.08415677 1.843656
0.5983357 -0.08438066 1.844218
0.6083854 -0.08471189 1.84704
0.609279 -0.08377586 1.822021
0.6302662 -0.0855917 1.85711
0.6369066 -0.08543869 1.849054
0.6458272 -0.08559157 1.847586
0.6456648 -0.08455134 1.820182
0.6472564 -0.08376259 1.79826
-1.012804 -0.1125338 2.626608
-1.095437 -0.1230828 2.882292
-1.066583 -0.1212026 2.846233
-1.048052 -0.1204658 2.836846
-1.029385 -0.1196959 2.826465
-1.009564 -0.1187723 2.812217
-0.9950262 -0.1184555 2.812206
-0.9800702 -0.1180808 2.810658
-0.9558293 -0.1165646 2.781605
-0.939335 -0.1159673 2.774331
-0.8974109 -0.1121764 2.689968
-0.8989944 -0.1137968 2.735687
-0.8758261 -0.1122854 2.705704
-0.8565928 -0.1112458 2.686888
-0.8393234 -0.1104373 2.673469
-0.8360538 -0.1114738 2.704819
-0.8171 -0.1104189 2.685103
-0.8048326 -0.110251 2.686885
-0.7845392 -0.1089638 2.661093
-0.7740933 -0.1090272 2.668267
-0.7611444 -0.1087349 2.666589
-0.7411251 -0.1074094 2.639286
-0.7309372 -0.1074908 2.646544
-0.7179571 -0.1071578 2.64345
-0.70208 -0.1063758 2.629083
-0.6889219 -0.105988 2.624356
-0.6716066 -0.1049385 2.603015
-0.6517591 -0.1034538 2.570625
-0.6442682 -0.1039142 2.586648
-0.6318557 -0.1035829 2.582792
-0.6105838 -0.101764 2.541501
-0.6017576 -0.1019928 2.55143
-0.5929611 -0.1022347 2.56162
-0.579213 -0.1016163 2.550059
-0.5705538 -0.1018846 2.560751
-0.5575044 -0.1013644 2.551444
-0.5452695 -0.1009758 2.545346
-0.5344325 -0.1008363 2.545455
-0.5197161 -0.0999454 2.526392
-0.5086082 -0.09972708 2.52429
-0.4939084 -0.09878168 2.503581
-0.4845319 -0.09888405 2.509444
-0.4745207 -0.09885849 2.51197
-0.4581781 -0.0974847 2.479961
-0.4501077 -0.0978495 2.492278
-0.4344239 -0.09653864 2.461617
-0.4257678 -0.09676542 2.47024
-0.4161137 -0.09677064 2.473115
-0.4051359 -0.09646093 2.467824
-0.3945617 -0.09623457 2.464589
-0.3774864 -0.09437159 2.41912
-0.3690951 -0.09463977 2.428429
-0.358077 -0.09423079 2.420208
-0.3486161 -0.09422055 2.4222
-0.3389929 -0.09416469 2.422945
-0.3281176 -0.09374789 2.414281
-0.3181242 -0.09356593 2.411614
-0.3082095 -0.09339681 2.409208
-0.2959053 -0.09247039 2.387086
-0.28625 -0.09233871 2.385494
-0.2759946 -0.09199819 2.37841
-0.2656416 -0.09160053 2.369765
-0.2558935 -0.09139054 2.365925
-0.2469768 -0.09147289 2.369628
-0.2357743 -0.09068241 2.350538
-0.2264801 -0.09059205 2.349611
-0.2166473 -0.09026971 2.342571
-0.2076578 -0.09028602 2.344301
-0.1991024 -0.09050108 2.351161
-0.1908966 -0.09090313 2.362852
-0.1811224 -0.0905612 2.355055
-0.1701585 -0.08955713 2.32988
-0.1606957 -0.08927537 2.323519
-0.1498869 -0.08816877 2.295513
-0.1421666 -0.0888541 2.314334
-0.1330892 -0.08872615 2.311817
-0.1237294 -0.08837812 2.303478
-0.1140927 -0.0877636 2.288096
-0.1052913 -0.08774276 2.288211
-0.0964566 -0.08768782 2.287378
-0.08711068 -0.08711068 2.272798
-0.07885356 -0.08761507 2.286524
-0.06970599 -0.08713248 2.274311
-0.06101334 -0.08716192 2.275475
-0.0522525 -0.0870875 2.273862
-0.04342559 -0.08685117 2.267946
-0.03452079 -0.08630196 2.253765
-0.02578877 -0.08596256 2.245037
-0.01704115 -0.08520574 2.225297
-0.008662186 -0.08662186 2.26255
-0 -0.08491393 2.217738
0.008476326 -0.08476327 2.213758
0.01697377 -0.08486887 2.216454
0.02538452 -0.08461504 2.209664
0.03391206 -0.08478014 2.21382
0.04227547 -0.08455094 2.207577
0.05092109 -0.08486848 2.215631
0.05908583 -0.08440834 2.203227
0.0676517 -0.08456463 2.206948
0.07370821 -0.08189801 2.136575
0.08358953 -0.08358953 2.180464
0.08725199 -0.07931999 2.068004
0.106184 -0.08848664 2.307708
0.09177282 -0.07059448 1.838232
nan nan nan
0.09653373 -0.06435581 1.673679
0.09204266 -0.05752666 1.494318
0.1054408 -0.06202402 1.611418
nan nan nan
0.09969018 -0.05246852 1.360245
0.06762709 -0.03381355 0.8721318
0.05743272 -0.02734891 0.7028564
nan nan nan
nan nan nan
0.4285715 -0.1785715 4.645303
0.04123114 -0.01649246 0.4183611
0.07799573 -0.02999835 0.7698917
0.109362 -0.04050443 1.042881
0.4864294 -0.1737248 4.507743
0.1207677 -0.04164403 1.071097
0.1494898 -0.04982992 1.282981
nan nan nan
nan nan nan
nan nan nan
0.5572532 -0.163898 4.233017
0.5912821 -0.1689377 4.359846
nan nan nan
0.6623791 -0.1790214 4.612573
0.6898535 -0.1815404 4.673292
0.7039809 -0.1805079 4.642197
0.7367209 -0.1841802 4.732198
0.7473734 -0.1822862 4.678657
0.7562734 -0.1800651 4.616674
nan nan nan
0.749077 -0.1702448 4.354748
nan nan nan
0.6885428 -0.1496832 3.818592
0.7240283 -0.1540486 3.925578
nan nan nan
nan nan nan
nan nan nan
0.09907094 -0.01942567 0.4824584
nan nan nan
nan nan nan
0.9410717 -0.1742726 4.401305
nan nan nan
nan nan nan
0.08185116 -0.01435985 0.3505025
1.04465 -0.180112 4.52168
1.076444 -0.1824482 4.573141
1.088383 -0.1813971 4.53928
nan nan nan
nan nan nan
nan nan nan
1.133583 -0.1771223 4.40144
1.168098 -0.1797074 4.457699
1.084541 -0.1643244 4.067542
1.126967 -0.1682041 4.155927
1.154218 -0.1697379 4.185788
nan nan nan
1.021417 -0.1459168 3.582353
nan nan nan
nan nan nan
0.9058507 -0.1240891 3.025569
0.123803 -0.01673014 0.3970933
nan nan nan
0.5722866 -0.07530087 1.819234
0.5940052 -0.07714354 1.859706
0.6028438 -0.07728766 1.858797
0.6084027 -0.07701301 1.84769
0.6067978 -0.07584973 1.815145
0.6241448 -0.0770549 1.839563
0.628926 -0.0766983 1.826342
0.6436431 -0.07754736 1.841908
0.6539931 -0.07785632 1.844422
0.6652408 -0.07826363 1.849162
-1.02088 -0.102088 2.648466
-1.087535 -0.1099755 2.862302
-1.074239 -0.1098654 2.867628
-1.063406 -0.1100075 2.879452
-1.036749 -0.108497 2.847632
-1.031105 -0.1091758 2.873331
-0.9960245 -0.1067169 2.815883
-0.9612508 -0.104232 2.757291
-0.9595683 -0.1053185 2.793359
-0.9435124 -0.1048347 2.787543
-0.9365252 -0.1053591 2.808537
-0.9057186 -0.1031831 2.75704
-0.8844247 -0.102049 2.733174
-0.8804811 -0.1029134 2.762936
-0.8541475 -0.1011491 2.721672
-0.8358692 -0.1003043 2.704991
-0.8158583 -0.09922601 2.681767
-0.8003848 -0.09867758 2.672727
-0.7868561 -0.09835701 2.669735
-0.7713839 -0.09778106 2.65963
-0.7568089 -0.097304 2.652071
-0.741618 -0.0967328 2.641778
-0.7264106 -0.09614258 2.630805
-0.7161276 -0.09619626 2.637405
-0.7041975 -0.09602694 2.637764
-0.6914693 -0.09574189 2.634813
-0.6789691 -0.09548003 2.632383
-0.6546 -0.0935143 2.582569
-0.6488968 -0.09419469 2.606005
-0.6317892 -0.0932148 2.583202
-0.6147045 -0.09220568 2.559403
-0.603786 -0.09210294 2.560739
-0.5960494 -0.09249043 2.575691
-0.5788845 -0.09140284 2.549266
-0.5675902 -0.09121987 2.548046
-0.5606236 -0.09173841 2.56644
-0.5468045 -0.0911341 2.553195
-0.5308232 -0.0901398 2.528828
-0.524069 -0.09070425 2.548291
-0.5122757 -0.0904016 2.543213
-0.4992657 -0.08986784 2.531493
-0.4850026 -0.08908211 2.512517
-0.4701922 -0.08816104 2.489566
-0.4622703 -0.08851984 2.502829
-0.4463421 -0.08732781 2.471937
-0.4338024 -0.08676048 2.458678
-0.4270166 -0.08734432 2.478121
-0.4143623 -0.086727 2.463253
-0.4059341 -0.08698589 2.473304
-0.3916463 -0.08597114 2.446879
-0.3815229 -0.08584265 2.445694
-0.3702929 -0.0854522 2.436925
-0.3589774 -0.08502096 2.426897
-0.3487144 -0.08482242 2.423457
-0.3371542 -0.08428855 2.410306
-0.3280476 -0.0843551 2.414327
-0.3167863 -0.08385519 2.401983
-0.3089912 -0.08427034 2.415907
-0.2964021 -0.08336309 2.391666
-0.2864783 -0.08317111 2.387955
-0.2759358 -0.08278073 2.378446
-0.2671739 -0.08291604 2.384045
-0.255937 -0.08226545 2.366868
-0.2447537 -0.08158458 2.348729
-0.2355424 -0.08153391 2.348747
-0.2250635 -0.08102289 2.33537
-0.2171322 -0.08142458 2.348369
-0.2068641 -0.08094684 2.33582
-0.1980361 -0.08101477 2.339031
-0.1881195 -0.08062263 2.328831
-0.1793624 -0.08071306 2.332577
-0.168929 -0.080019 2.313476
-0.1606617 -0.08033083 2.32354
-0.1520692 -0.08050724 2.329618
-0.1441271 -0.08107153 2.346926
-0.1339854 -0.08039122 2.327973
-0.1148335 -0.07382156 2.137509
-0.1102606 -0.0763343 2.211346
-0.1048924 -0.07866932 2.279999
-0.09528565 -0.07796099 2.259966
-0.0876964 -0.07892677 2.288658
-0.07768657 -0.07768657 2.253007
-0.06999791 -0.07874765 2.284383
-0.06074829 -0.07810495 2.266035
-0.05207413 -0.0781112 2.266555
-0.04313177 -0.07763719 2.253014
-0.03481544 -0.07833474 2.273595
-0.02572403 -0.07717209 2.239858
-0.01728838 -0.07779773 2.25824
-0.008658022 -0.0779222 2.261948
-0 -0.07727375 2.243055
0.008483793 -0.07635414 2.216199
0.01716061 -0.07722277 2.241465
0.02536859 -0.07610577 2.208751
0.03385828 -0.07618114 2.210773
0.04246964 -0.07644534 2.218251
0.0508683 -0.07630244 2.213804
0.05892665 -0.07576285 2.19774
0.06729317 -0.07570481 2.19567
0.07661994 -0.07661994 2.221916
0.08194449 -0.07375004 2.137794
0.09309974 -0.07617252 2.207858
nan nan nan
0.2342869 -0.1621986 4.711683
0.1175351 -0.0755583 2.188066
nan nan nan
0.09547702 -0.05370583 1.550846
0.107093 -0.05669627 1.63721
0.1001361 -0.05006807 1.443876
0.07532514 -0.03568033 1.025214
nan nan nan
nan nan nan
0.3920777 -0.1603954 4.642131
0.4091229 -0.1600916 4.630865
nan nan nan
nan nan nan
0.132415 -0.04583596 1.31537
nan nan nan
0.1289311 -0.04144215 1.18664
0.1119 -0.03472758 0.9918338
nan nan nan
0.1624932 -0.04717544 1.349502
0.1818212 -0.05113721 1.462676
nan nan nan
0.1642875 -0.04348786 1.240158
0.08832679 -0.02271261 0.6416684
0.09109093 -0.02277273 0.6428281
0.07877962 -0.01916261 0.5386075
0.06401268 -0.0151609 0.4233302
0.7162766 -0.1652946 4.724597
0.04936915 -0.01110806 0.3064789
0.04203408 -0.009226994 0.2523674
0.06068113 -0.0130031 0.3599583
0.1011856 -0.02117838 0.5928397
0.2398553 -0.04906131 1.386929
0.7155656 -0.1431131 4.063094
nan nan nan
0.4209075 -0.08059932 2.277855
0.3355134 -0.06290878 1.773183
0.2600839 -0.04777051 1.34202
0.1091722 -0.01965099 0.5445804
0.1011599 -0.01785175 0.4929995
0.09310529 -0.01611438 0.4432849
nan nan nan
0.1352702 -0.02254504 0.6229773
0.5969183 -0.09767754 2.733335
0.1283615 -0.02062953 0.5673613
0.07330206 -0.01157401 0.3127781
0.08244038 -0.01279247 0.3463551
1.06309 -0.1621663 4.517442
1.087914 -0.1631871 4.538512
1.107868 -0.1634559 4.5384
0.08476315 -0.01230433 0.3304331
1.151222 -0.1644602 4.550581
1.159103 -0.1629988 4.501993
1.154556 -0.1598616 4.407075
1.094687 -0.1492755 4.106816
1.036264 -0.1391996 3.821557
1.041148 -0.137799 3.775648
0.9779867 -0.1275635 3.487425
1.082322 -0.1391558 3.797699
1.09852 -0.139249 3.79242
nan nan nan
nan nan nan
1.228253 -0.1493821 4.043131
nan nan nan
0.577407 -0.06837715 1.836141
0.5919999 -0.0691948 1.853925
0.5990329 -0.06911918 1.847512
0.6100396 -0.06949818 1.853234
0.6099958 -0.06862453 1.825308
0.6294304 -0.06993671 1.855788
0.6360595 -0.06981142 1.847736
0.643868 -0.06981702 1.843107
0.6536126 -0.07002991 1.843896
0.6628017 -0.07017902 1.842898
-1.03749 -0.09222131 2.692489
-1.05504 -0.0948351 2.777201
-1.048115 -0.09528317 2.798378
-1.074453 -0.0988003 2.910278
-1.032794 -0.09607386 2.837494
-1.014472 -0.09547972 2.827559
-0.970589 -0.09243704 2.744417
-0.9683516 -0.09333508 2.778485
-0.9534472 -0.09301924 2.776204
-0.9398102 -0.09282076 2.777293
-0.9272014 -0.09272016 2.781192
-0.9192793 -0.09309158 2.799221
-0.9198756 -0.09434622 2.843928
-0.8729193 -0.09069291 2.739815
-0.8514224 -0.08962342 2.713649
-0.8368607 -0.08926514 2.708905
-0.8139194 -0.08799128 2.676045
-0.8010015 -0.08778099 2.67547
-0.788409 -0.08760099 2.675698
-0.7700379 -0.08676483 2.655633
-0.7571507 -0.08653151 2.653932
-0.7438436 -0.08624274 2.650395
-0.7332107 -0.08626007 2.656193
-0.7176497 -0.08568951 2.64368
-0.7062445 -0.0856054 2.646107
-0.6891667 -0.08482052 2.626636
-0.6691946 -0.08364933 2.594945
-0.6581939 -0.08358017 2.597431
-0.6420844 -0.08284959 2.579138
-0.6239376 -0.08182788 2.55156
-0.6244336 -0.08325782 2.600705
-0.607075 -0.08231526 2.575352
-0.5916127 -0.08160174 2.557028
-0.5818573 -0.08166419 2.56301
-0.5705757 -0.0815108 2.562098
-0.5532498 -0.08047269 2.533113
-0.5451655 -0.08076528 2.546087
-0.5372006 -0.0810869 2.559927
-0.5258574 -0.08090115 2.557603
-0.4395601 -0.06895061 2.181074
-0.4503984 -0.07206374 2.283101
-0.441166 -0.07202711 2.284895
-0.40479 -0.06746501 2.142153
-0.4386283 -0.07466014 2.374761
-0.4365395 -0.07591993 2.417926
-0.4248508 -0.07552903 2.408231
-0.4225986 -0.07683611 2.452894
-0.412565 -0.07675628 2.453048
-0.404327 -0.07701467 2.463996
-0.3909422 -0.07628141 2.442983
-0.3821467 -0.07642935 2.450233
-0.368621 -0.07561456 2.426385
-0.3563277 -0.07501635 2.409407
-0.3475191 -0.07513925 2.415619
-0.3377581 -0.07505735 2.415149
-0.3295746 -0.07533134 2.426125
-0.3189442 -0.07504568 2.418926
-0.3085433 -0.0747984 2.412889
-0.2948111 -0.07370277 2.379257
-0.2855522 -0.07369089 2.380688
-0.2760894 -0.07362385 2.380265
-0.2671872 -0.07370681 2.384652
-0.2559827 -0.07313792 2.367776
-0.2456475 -0.07278444 2.357826
-0.2363423 -0.07272071 2.35724
-0.2257745 -0.07224785 2.343256
-0.2174234 -0.07247446 2.352007
-0.2084284 -0.07249684 2.354042
-0.1997625 -0.07264092 2.359994
-0.1906225 -0.07261809 2.360441
-0.1810478 -0.07241911 2.355073
-0.1728949 -0.07279783 2.368528
-0.1641042 -0.07293518 2.374043
-0.1541735 -0.07255223 2.362479
-0.1446935 -0.07234673 2.356658
-0.1322319 -0.0705237 2.29781
-0.1158017 -0.06617241 2.156051
-0.1135013 -0.06984694 2.277123
-0.1045642 -0.06970947 2.273274
-0.09502325 -0.06910782 2.254152
-0.08710924 -0.0696874 2.273701
-0.07819346 -0.06950529 2.268225
-0.0696398 -0.0696398 2.27308
-0.06032116 -0.06893847 2.25046
-0.05207744 -0.0694366 2.267141
-0.04326233 -0.06921972 2.260308
-0.03455282 -0.06910565 2.256797
-0.02571874 -0.0685833 2.239831
-0.01706185 -0.06824739 2.228932
-0.00851572 -0.06812576 2.225015
-0 -0.06819052 2.227167
0.008469262 -0.0677541 2.212814
0.01692712 -0.06770848 2.211241
0.02531803 -0.06751474 2.204754
0.03385127 -0.06770253 2.210742
0.04214723 -0.06743556 2.201752
0.0504326 -0.06724347 2.195172
0.05909327 -0.06753517 2.204416
0.06657279 -0.06657279 2.172466
0.07634266 -0.06786014 2.214266
0.08204327 -0.06563461 2.140803
0.09069007 -0.06595641 2.150836
0.1011336 -0.0674224 2.198314
nan nan nan
nan nan nan
0.08283024 -0.04417613 1.435062
0.09275413 -0.04637706 1.506588
nan nan nan
nan nan nan
0.1013102 -0.04265694 1.38312
0.1054735 -0.04218941 1.36721
0.1115732 -0.04250406 1.376828
0.05451095 -0.01982216 0.635645
0.03799099 -0.01321426 0.4196923
0.109061 -0.03635366 1.17406
nan nan nan
0.1079652 -0.03322006 1.070592
0.1227451 -0.03636892 1.172414
0.1438006 -0.04108589 1.325089
0.1608735 -0.04437889 1.431232
nan nan nan
0.1709409 -0.04411377 1.42055
0.1843829 -0.04609573 1.483753
0.2451941 -0.05944101 1.915125
0.08898368 -0.02093733 0.6665899
nan nan nan
0.1438163 -0.03195918 1.021771
0.06390062 -0.01381635 0.4348066
0.07520103 -0.0158318 0.4994352
0.7143484 -0.146533 4.712845
nan nan nan
0.04764428 -0.009296446 0.2876464
0.06839582 -0.01302778 0.4072707
nan nan nan
nan nan nan
0.2631712 -0.04678599 1.487395
0.6645737 -0.115578 3.686969
nan nan nan
nan nan nan
0.4800112 -0.07836919 2.487094
nan nan nan
0.8986669 -0.1409674 4.471128
0.2280938 -0.03509136 1.102875
nan nan nan
0.1243204 -0.01841784 0.5717515
0.1014864 -0.01476165 0.455292
nan nan nan
0.9845109 -0.138177 4.344594
nan nan nan
1.071772 -0.145325 4.555492
1.086039 -0.1448053 4.531734
0.06161456 -0.008080598 0.2416231
0.06545591 -0.008445924 0.252615
1.149246 -0.145936 4.543838
1.16195 -0.1452437 4.514163
1.197079 -0.1473328 4.570915
1.015457 -0.1230856 3.809668
0.9670801 -0.1154722 3.566523
1.033285 -0.121563 3.747968
1.050543 -0.121802 3.74793
1.070546 -0.1223482 3.757185
0.9975549 -0.1124006 3.443663
nan nan nan
nan nan nan
nan nan nan
nan nan nan
0.5771661 -0.06075434 1.835843
0.5952603 -0.06184522 1.864681
0.6020579 -0.06174953 1.857382
0.6092181 -0.06169298 1.851207
0.6156995 -0.06156995 1.842968
0.6243972 -0.06166885 1.841343
0.634414 -0.06189405 1.843416
0.6467012 -0.06233265 1.851763
0.6533415 -0.06222299 1.843623
0.6603715 -0.06215262 1.836595
-1.060337 -0.08247063 2.752708
-1.059043 -0.08329552 2.788459
-1.065605 -0.08476403 2.845956
-1.054668 -0.08485837 2.857165
-1.041741 -0.0847929 2.86286
-0.9979574 -0.08218473 2.782005
-0.9817454 -0.08181211 2.776752
-0.9581618 -0.08080883 2.749774
-0.9349023 -0.07980873 2.72262
-0.9345621 -0.08076461 2.762362
-0.9238493 -0.08083683 2.771737
-0.90962 -0.08059925 2.770325
-0.8913617 -0.07999399 2.756047
-0.8721948 -0.07929043 2.738155
-0.8496178 -0.07825428 2.708486
-0.8402833 -0.07842644 2.720643
-0.8148193 -0.07707749 2.679616
-0.8100794 -0.07767884 2.706525
-0.7844756 -0.07626845 2.662881
-0.7725084 -0.07616279 2.664776
-0.7567512 -0.07567511 2.653106
-0.7403314 -0.07510608 2.638401
-0.7294291 -0.07508829 2.643006
-0.7180654 -0.07502175 2.645788
-0.7050875 -0.074782 2.642319
-0.6931939 -0.07465164 2.642614
-0.6752818 -0.07385894 2.619208
-0.6641074 -0.07378972 2.621423
-0.6482675 -0.07319149 2.604631
-0.6259058 -0.07182526 2.560178
-0.6207656 -0.07242265 2.585896
-0.6086279 -0.07221008 2.582502
-0.5927282 -0.07153616 2.562396
-0.5841635 -0.07173939 2.573738
-0.5621454 -0.07026818 2.524586
-0.5548255 -0.07061416 2.540873
-0.5447409 -0.07061455 2.544605
-0.5318567 -0.07024522 2.534854
-0.4666107 -0.06281298 2.268603
-0.4107478 -0.05637714 2.037759
-0.4296255 -0.06014756 2.177701
-0.3971686 -0.05673837 2.056281
-0.3822789 -0.055749 2.02278
-0.3721496 -0.05542653 2.013492
-0.3939457 -0.05994826 2.181306
-0.3991843 -0.06209534 2.262484
-0.4226187 -0.06723479 2.453481
-0.4131893 -0.06726337 2.457245
-0.4021832 -0.06703053 2.451335
-0.3920653 -0.06693797 2.450496
-0.3803413 -0.06655971 2.439061
-0.3683665 -0.06611706 2.425156
-0.3577235 -0.06589644 2.419342
-0.3465866 -0.06557043 2.409553
-0.3369775 -0.06552338 2.409986
-0.3269361 -0.06538723 2.407053
-0.3178902 -0.06544797 2.411336
-0.3083295 -0.06540323 2.411649
-0.2969559 -0.0649591 2.397087
-0.2869788 -0.06480166 2.393074
-0.2757559 -0.06434305 2.377805
-0.2681157 -0.06471758 2.393409
-0.2547257 -0.06368142 2.356515
-0.2444358 -0.06337223 2.346559
-0.2353879 -0.06337366 2.348093
-0.2263418 -0.06337571 2.349591
-0.2178003 -0.06352508 2.356522
-0.2058715 -0.06265654 2.325434
-0.1989559 -0.06330413 2.350832
-0.1878491 -0.06261636 2.326341
-0.1785466 -0.06249131 2.322787
-0.171602 -0.06322177 2.351143
-0.1622725 -0.06310597 2.347827
-0.1515741 -0.06241288 2.32286
-0.1443681 -0.06316102 2.351741
-0.1307938 -0.06103708 2.273088
-0.1133373 -0.05666864 2.110289
-0.10594 -0.05704458 2.125027
-0.1051155 -0.06131735 2.285714
-0.09616765 -0.06119759 2.281831
-0.085454 -0.05981779 2.230663
-0.07838726 -0.06096786 2.274266
-0.06886412 -0.06025611 2.24802
-0.06045565 -0.06045565 2.255891
-0.05148184 -0.06006214 2.241465
-0.04338161 -0.06073425 2.266961
-0.0343695 -0.06014663 2.245147
-0.02569625 -0.05995791 2.238246
-0.01710261 -0.05985912 2.234667
-0.008494292 -0.05946004 2.219767
-0 -0.06002073 2.240833
0.00857675 -0.06003724 2.241427
0.01689356 -0.05912745 2.207211
0.02543842 -0.05935629 2.215672
0.03390957 -0.05934174 2.214949
0.04216204 -0.05902686 2.202908
0.05064553 -0.05908645 2.204867
0.05897577 -0.05897577 2.200388
0.06694968 -0.05858097 2.185206
0.0753237 -0.05858509 2.184934
0.08368799 -0.05858159 2.184326
0.0926144 -0.05893644 2.197097
0.09779447 -0.05704677 2.125721
0.09314316 -0.050154 1.866952
nan nan nan
0.1060334 -0.04948227 1.840601
nan nan nan
0.104825 -0.04316321 1.602892
0.1470333 -0.05717961 2.126261
0.1209943 -0.04457685 1.654374
0.2060708 -0.07212478 2.68263
0.1401294 -0.04670978 1.732459
0.3881828 -0.1235127 4.597629
0.05753158 -0.01750961 0.6415797
0.04694093 -0.0136911 0.4988783
0.1100123 -0.03080345 1.136107
0.08164233 -0.02198062 0.8069181
0.1308837 -0.03393281 1.251137
0.1476084 -0.03690211 1.360726
nan nan nan
0.166349 -0.03881476 1.429849
nan nan nan
nan nan nan
nan nan nan
0.2517325 -0.05182728 1.907112
0.1563572 -0.03127144 1.145183
0.06286265 -0.01222329 0.4402409
0.09951881 -0.01882788 0.6836951
0.6979029 -0.128561 4.730947
0.05380942 -0.0096581 0.3444535
0.7303638 -0.1278136 4.694258
0.7376412 -0.1259387 4.620541
0.7661639 -0.127694 4.680213
nan nan nan
0.496131 -0.07892994 2.882248
nan nan nan
0.3057489 -0.04652701 1.690384
nan nan nan
0.3202466 -0.04670263 1.692681
nan nan nan
nan nan nan
0.8532714 -0.1171157 4.24553
0.9011109 -0.1213034 4.391779
0.2872911 -0.03794412 1.363964
0.1683756 -0.02182646 0.7785882
nan nan nan
0.1153339 -0.01441673 0.5088379
0.09460383 -0.01161802 0.4071897
0.9541979 -0.1151618 4.132051
1.072869 -0.1272895 4.561104
1.090488 -0.1272236 4.551286
1.109403 -0.1273085 4.546722
1.123297 -0.1268238 4.521633
1.155044 -0.1283382 4.567779
1.165644 -0.1274923 4.529508
1.188575 -0.1280003 4.539324
0.9978229 -0.1058297 3.744113
1.124489 -0.1174839 4.149796
1.043381 -0.1074069 3.785517
1.04569 -0.1060845 3.731377
1.063119 -0.1063119 3.731853
1.064219 -0.104923 3.67537
nan nan nan
nan nan nan
0.4156754 -0.03932064 1.361368
0.582728 -0.05438794 1.88322
0.5791154 -0.05333957 1.842499
0.5922549 -0.05384136 1.855632
0.602284 -0.05405112 1.85851
0.6000609 -0.05316996 1.82363
0.6161238 -0.05391084 1.844674
0.6263855 -0.05413207 1.847674
0.6361323 -0.05430397 1.848874
0.6417414 -0.05412277 1.837906
0.6556113 -0.05463428 1.850507
0.6583604 -0.05421792 1.831404
-1.031956 -0.06879704 2.679289
-1.064677 -0.07177597 2.803945
-1.044096 -0.07118835 2.788862
-1.033532 -0.07127806 2.800258
-1.015258 -0.07083192 2.790366
-1.005574 -0.0709817 2.803903
-0.9758923 -0.06970659 2.760695
-0.9542854 -0.06898448 2.739161
-0.9303868 -0.06807708 2.709963
-0.9302026 -0.0689039 2.749978
-0.9080165 -0.06810124 2.724585
-0.9049976 -0.068734 2.756739
-0.9060671 -0.06969746 2.80226
-0.8692676 -0.06773513 2.729465
-0.8592834 -0.06783816 2.739966
-0.8426394 -0.06741115 2.728835
-0.8178503 -0.06631218 2.690149
-0.8059223 -0.06624019 2.693096
-0.7858753 -0.0654896 2.668164
-0.7698272 -0.06505582 2.655994
-0.7562772 -0.06482376 2.65194
-0.7461033 -0.06487855 2.659561
-0.7326884 -0.06464898 2.655364
-0.7211155 -0.0645775 2.65757
-0.6992388 -0.06356718 2.620792
-0.6899825 -0.06369069 2.630803
-0.6772043 -0.06348789 2.627179
-0.6648798 -0.06332189 2.624964
-0.6487342 -0.06278072 2.606987
-0.6330025 -0.06226254 2.589803
-0.6154032 -0.06154033 2.563919
-0.6045433 -0.06147898 2.565551
-0.594124 -0.06146111 2.568913
-0.5831814 -0.06138752 2.569845
-0.5661331 -0.06065712 2.543023
-0.552649 -0.06028897 2.531302
-0.5408885 -0.06009873 2.526968
-0.5314461 -0.06016371 2.533327
-0.4292723 -0.04953142 2.086509
-0.4125186 -0.0485316 2.046945
-0.3994022 -0.04792826 2.024042
-0.3831024 -0.04691049 1.983386
-0.3720564 -0.04650705 1.968715
-0.4041604 -0.05159494 2.18804
-0.3617182 -0.04718063 2.002256
-0.4078611 -0.05438149 2.312296
-0.4140861 -0.0564663 2.404112
-0.4142707 -0.05780522 2.464113
-0.4036326 -0.0576618 2.460614
-0.3923284 -0.05741391 2.452549
-0.3793817 -0.05690725 2.433274
-0.3686172 -0.05671034 2.427207
-0.3562803 -0.05625478 2.409923
-0.3474731 -0.05634699 2.416134
-0.3366205 -0.05610342 2.407806
-0.3281014 -0.05624595 2.416058
-0.3179107 -0.05610188 2.411875
-0.3044221 -0.05534947 2.381317
-0.2949226 -0.05529798 2.38097
-0.2857689 -0.05531011 2.38331
-0.2774535 -0.05549069 2.392888
-0.2652608 -0.05488155 2.368172
-0.2559834 -0.05485357 2.368574
-0.2459628 -0.05465841 2.361656
-0.2363131 -0.05453379 2.357731
-0.2265618 -0.05437483 2.352247
-0.2171453 -0.05428633 2.349761
-0.2081085 -0.05428918 2.351188
-0.1991495 -0.05431349 2.353491
-0.1881073 -0.05374496 2.329909
-0.1796069 -0.05388205 2.337003
-0.1691174 -0.05340551 2.317287
-0.1619914 -0.05399714 2.344094
-0.1533052 -0.05410772 2.349874
-0.1405098 -0.05269117 2.288928
-0.130281 -0.05211239 2.264472
-0.1104673 -0.04734313 2.056869
-0.1112521 -0.05134711 2.232491
-0.103562 -0.05178099 2.252101
-0.09528057 -0.05197123 2.261015
-0.08628587 -0.05177152 2.252825
-0.07754662 -0.05169775 2.250089
-0.06967822 -0.05225866 2.27507
-0.06061504 -0.05195575 2.262204
-0.05177177 -0.05177177 2.254488
-0.04272308 -0.0512677 2.232706
-0.03433515 -0.05150273 2.243225
-0.02585863 -0.05171726 2.252796
-0.01712957 -0.0513887 2.238539
-0.008598357 -0.05159014 2.247436
-0 -0.05104645 2.223655
0.008462484 -0.0507749 2.21174
0.01690427 -0.05071281 2.208946
0.02539177 -0.05078353 2.211916
0.03374517 -0.05061775 2.204482
0.04243853 -0.05092624 2.217759
0.05030134 -0.05030134 2.19013
0.05877748 -0.0503807 2.193277
0.06703903 -0.05027927 2.188463
0.07528828 -0.05019219 2.184227
0.08248682 -0.04949209 2.153131
0.08719035 -0.04755838 2.068059
0.1004106 -0.05020532 2.183221
0.2302997 -0.1062921 4.6337
nan nan nan
0.08468612 -0.03387445 1.46795
0.06949227 -0.0260596 1.126239
0.1105513 -0.03901811 1.691337
0.101645 -0.03388165 1.466575
0.1333847 -0.04212147 1.825242
0.08070676 -0.02421203 1.043816
0.1197691 -0.03421974 1.479297
0.1152553 -0.03143326 1.357218
0.04149321 -0.01082432 0.4595948
0.4324187 -0.1081047 4.690647
nan nan nan
nan nan nan
0.1321028 -0.02935618 1.263095
nan nan nan
0.1230313 -0.02545475 1.092232
0.2042516 -0.04085033 1.758532
0.1433363 -0.02774252 1.189702
0.1153785 -0.02163347 0.9244856
0.1348837 -0.02452431 1.048724
0.1666343 -0.02940604 1.258732
0.05765987 -0.009884548 0.4151306
0.1547714 -0.02579524 1.10086
0.1757683 -0.02850297 1.216522
0.08740458 -0.01380072 0.5825515
0.7148913 -0.1099833 4.718078
0.6879773 -0.1031966 4.42188
nan nan nan
nan nan nan
0.7002369 -0.09770747 4.172985
nan nan nan
nan nan nan
0.5067615 -0.06609932 2.809732
0.2762406 -0.03526475 1.491875
0.2681691 -0.03352113 1.415795
0.2769983 -0.03391816 1.430887
nan nan nan
0.7842709 -0.09226717 3.901951
0.8970133 -0.1035015 4.372508
0.1705792 -0.01931085 0.805331
nan nan nan
nan nan nan
0.1148638 -0.01230683 0.5068077
0.08370542 -0.008811098 0.3590238
nan nan nan
1.069448 -0.1087574 4.547335
1.083745 -0.1083745 4.523882
nan nan nan
1.118667 -0.1082581 4.503763
0.05744585 -0.005471034 0.2163097
1.133553 -0.1062706 4.405297
1.188102 -0.1096709 4.538349
1.010281 -0.09184378 3.791707
1.044989 -0.09358108 3.856316
1.031987 -0.09105771 3.744755
1.024599 -0.08909559 3.656574
1.048454 -0.08986752 3.680916
1.047557 -0.08852597 3.618336
nan nan nan
nan nan nan
0.0493256 -0.003999373 0.1514587
0.5408961 -0.04327169 1.747548
0.583254 -0.04604637 1.856114
0.5944222 -0.04631861 1.862832
0.5983091 -0.04602377 1.846536
0.6066499 -0.04607468 1.844149
0.6157868 -0.04618401 1.844029
0.6239983 -0.0462221 1.840961
0.6394373 -0.0467881 1.858917
0.6447901 -0.04661133 1.847069
0.6537354 -0.04669538 1.845558
0.6494823 -0.04584581 1.806926
-1.068917 -0.0593843 2.776163
-1.078848 -0.06060941 2.841924
-1.069923 -0.06079105 2.858638
-1.048828 -0.06027747 2.842372
-1.012174 -0.05884736 2.782345
-0.9915504 -0.05832649 2.765122
-0.980081 -0.05833815 2.773074
-0.9561208 -0.05759764 2.744925
-0.9417719 -0.05742512 2.743736
-0.9240049 -0.05703734 2.732045
-0.9134331 -0.05708957 2.741371
-0.8989651 -0.05689653 2.738748
-0.8790763 -0.05635105 2.718898
-0.8606334 -0.05588528 2.702691
-0.849132 -0.05586395 2.70791
-0.8377422 -0.05584949 2.713357
-0.8329118 -0.05627782 2.740351
-0.8056957 -0.05518464 2.692775
-0.78488 -0.05450555 2.665202
-0.7740072 -0.05450755 2.670908
-0.7585621 -0.05418301 2.660414
-0.7459738 -0.05405607 2.659521
-0.7285201 -0.05356765 2.640612
-0.7143861 -0.05331239 2.633078
-0.7006833 -0.05308207 2.626642
-0.6894 -0.05303077 2.628983
-0.6773899 -0.05292109 2.62831
-0.6647642 -0.05275907 2.624911
-0.6486946 -0.05231408 2.607227
-0.6352001 -0.05206558 2.599231
-0.616855 -0.05140459 2.570385
-0.6048555 -0.05125894 2.567269
-0.5916243 -0.05100209 2.558441
-0.5801215 -0.05088785 2.556684
-0.567552 -0.05067429 2.549804
-0.5538476 -0.05034978 2.537193
-0.5378689 -0.04980267 2.513167
-0.5289208 -0.04989819 2.521603
-0.4354856 -0.04187361 2.117184
-0.3927126 -0.03850124 1.948398
-0.3952678 -0.03952678 2.00326
-0.3915388 -0.03995294 2.027606
-0.3820632 -0.03979826 2.022263
-0.3826353 -0.04070589 2.071191
-0.3876957 -0.04214083 2.14718
-0.3886415 -0.04318238 2.203103
-0.4229294 -0.04806016 2.456043
-0.4155072 -0.04831479 2.471846
-0.4046434 -0.04817184 2.467147
-0.39485 -0.04815244 2.468727
-0.3785195 -0.04731494 2.428053
-0.3684155 -0.04723275 2.426205
-0.3577716 -0.04707521 2.420389
-0.3467635 -0.04685992 2.411504
-0.3366453 -0.04675629 2.40831
-0.3274307 -0.04677582 2.411422
-0.3174581 -0.04668501 2.408748
-0.3052537 -0.04625057 2.388174
-0.2977445 -0.04652258 2.404182
-0.287779 -0.04641596 2.400473
-0.2774747 -0.04624578 2.393388
-0.2660251 -0.0458664 2.375341
-0.260114 -0.04644894 2.407297
-0.2468629 -0.04571537 2.370651
-0.2352418 -0.04523882 2.347298
-0.2277152 -0.04554304 2.364589
-0.2166879 -0.04514331 2.345091
-0.2079915 -0.04521554 2.350163
-0.1981672 -0.045038 2.342129
-0.1890757 -0.04501802 2.342264
-0.1793192 -0.0448298 2.333541
-0.1694852 -0.04460136 2.322648
-0.1632816 -0.04535599 2.363157
-0.1531597 -0.04504697 2.347932
-0.1424376 -0.04451177 2.320786
-0.1311641 -0.04372138 2.28019
-0.1190857 -0.04253063 2.218519
-0.1086637 -0.04179372 2.18056
-0.1034038 -0.04308493 2.24893
-0.09466279 -0.04302854 2.246564
-0.08709513 -0.04354757 2.274349
-0.07711445 -0.04284136 2.237767
-0.06840198 -0.04275124 2.23347
-0.05988868 -0.04277763 2.23524
-0.05255688 -0.0437974 2.289139
-0.04297085 -0.04297085 2.246003
-0.03419889 -0.04274861 2.234557
-0.02574598 -0.04290996 2.243214
-0.01710789 -0.04276973 2.235973
-0.008538744 -0.04269372 2.232055
-0 -0.04242646 2.218036
0.008500423 -0.04250212 2.221986
0.01695693 -0.04239231 2.21614
0.02552301 -0.04253835 2.223687
0.03366468 -0.04208085 2.199472
0.04224499 -0.04224499 2.20787
0.05072415 -0.04227013 2.208913
0.05892929 -0.04209235 2.199248
0.06693377 -0.04183361 2.185283
0.07544169 -0.04191205 2.188977
0.08226232 -0.04113116 2.147511
0.09344867 -0.04247667 2.217603
0.1013681 -0.04223672 2.204428
nan nan nan
0.09191357 -0.03282627 1.709693
0.1148798 -0.03829326 1.995674
0.1277438 -0.03991993 2.08019
0.0941016 -0.02767694 1.438147
0.1569395 -0.04359431 2.270923
nan nan nan
0.1318606 -0.03296514 1.712908
0.1229884 -0.02928295 1.519564
nan nan nan
0.03094442 -0.006727048 0.339879
0.05084733 -0.01059319 0.5415061
nan nan nan
nan nan nan
0.2094671 -0.03879021 2.009796
0.09262057 -0.01653939 0.8497903
0.1411748 -0.02434048 1.255164
0.1481101 -0.02468501 1.272187
0.1108678 -0.01788189 0.9177326
0.1055562 -0.01649315 0.8449188
0.1523188 -0.02307861 1.185926
0.1653956 -0.02432289 1.249459
nan nan nan
0.1113742 -0.01546864 0.7890726
0.1765373 -0.02385639 1.222061
0.153483 -0.02019513 1.031785
nan nan nan
0.08673529 -0.01084191 0.5475231
